780.0955,777.2445700000001,776.8369,776.3563,774.6505,773.9124000000002,771.35486,770.7066,769.4795999999999,768.9540999999999,767.1753,764.82886,764.69556,763.49084,762.7763,761.9239500000001,760.95856,760.5596,758.9096,758.4333000000001,757.2122,754.7605,754.9111,754.3381,753.1264999999999,752.19354,653.2671508789062,653.5867919921875,650.8302001953125,648.56591796875,649.012939453125,647.4573364257812,644.9442749023438,643.3720092773438,639.6148071289062,636.132080078125,635.0296630859375,634.5882568359375,633.1253662109375,632.3444213867188,631.7664794921875,631.9397583007812,631.6970825195312,631.5761108398438,630.73193359375,628.0234375,626.5222778320312,624.0375366210938,622.8576049804688,623.0752563476562,620.9091796875,619.0653076171875,619.9010009765625,620.6315307617188,620.0103759765625,619.1173095703125,620.120361328125,618.5646362304688,619.4852905273438,619.8679809570312,620.676513671875,621.5632934570312,621.9896850585938,622.435791015625,624.9635009765625,624.661376953125,625.4746704101562,625.8092041015625,629.2354125976562,632.8513793945312,724.27905,722.80817,723.0328399999999,722.8595,721.6588,722.2345,722.1946,721.4419,721.20605,721.853,720.9432000000002,721.29614,720.19855,719.8229000000001,719.4864,719.71686,719.6966,719.3701999999998,719.58295,719.5385999999999,719.69055,719.4773,718.0678,719.4315,719.53973,718.8984,719.26984,719.1804,719.1471,719.45435
778.4783300000001,776.70416,775.3213,774.64,773.63464,771.9144,770.5209,769.9175,768.3616,767.6851,766.87286,764.98505,763.9288999999999,762.2429999999999,761.4284699999998,761.1696,759.7626,759.28876,757.2555,756.3035,755.9185,754.4505000000001,754.16266,655.3001098632812,653.169921875,653.1376342773438,650.1870727539062,647.83642578125,647.2123413085938,646.6258544921875,646.9319458007812,645.0348510742188,640.9984130859375,640.2543334960938,636.8343505859375,634.452880859375,633.0703125,631.96484375,630.8532104492188,629.9745483398438,629.1035766601562,629.1302490234375,625.7374877929688,626.0794677734375,625.0748291015625,624.3912353515625,622.0307006835938,621.7203979492188,620.4072265625,620.2819213867188,619.423828125,618.846923828125,619.1729736328125,619.40869140625,619.1488647460938,618.8721313476562,617.29541015625,619.54833984375,617.8765869140625,619.3287353515625,618.8837280273438,619.3372192382812,621.6904296875,622.829833984375,622.6385498046875,623.576904296875,625.8950805664062,626.7252197265625,631.2103271484375,723.0309,722.51917,722.1052,721.4630999999999,721.45715,721.4558999999999,721.2577999999999,721.5671,720.7384,721.1918000000001,719.9793,720.18866,719.30853,720.097,719.5802000000001,718.9459999999999,719.2524000000001,719.1325,718.32935,718.8734999999999,718.8237000000001,718.6636999999998,718.01044,718.9546,718.1693,718.6947599999999,718.183,718.5883,718.2135600000001,718.3787,717.5302999999999
777.0453499999999,776.54803,775.0550499999999,773.5254499999999,771.7873499999998,771.2252,769.6258,769.2895999999998,767.5624,767.2138,766.2645,764.2376,763.22253,761.28394,760.53296,759.8815,759.1211,757.71155,756.9934,756.08673,755.0577,753.6553000000001,657.4763793945312,652.4916381835938,650.2562866210938,648.2354125976562,647.7042236328125,650.6529541015625,648.442626953125,644.2548828125,640.656494140625,638.0217895507812,636.4120483398438,633.8952026367188,632.8358764648438,631.855224609375,630.9386596679688,631.2296752929688,629.0073852539062,626.956298828125,623.7457885742188,622.4481811523438,619.8877563476562,619.4942016601562,619.8897705078125,620.1159057617188,619.3740234375,619.1211547851562,618.5625610351562,617.6597290039062,618.0661010742188,617.361328125,616.9736328125,617.4209594726562,617.315673828125,617.5697021484375,617.8475952148438,617.4736938476562,617.0945434570312,617.9823608398438,616.6641235351562,618.7078247070312,619.7666625976562,622.3099975585938,622.280029296875,624.4093627929688,627.6031494140625,626.5357055664062,722.1252,722.0267,721.3664,721.54694,720.62915,720.9085,720.4952000000001,719.3915,719.4774,719.8584600000002,719.83026,718.7936,719.6568,719.1276,718.83484,718.6677,718.0156,718.1155,717.8952000000002,717.95264,718.6328000000001,717.9012,717.2727,716.83264,717.93896,717.3004000000001,717.24133,717.27,717.92126,717.89526,716.9613000000002,716.9963
776.04675,774.79755,773.8626999999999,772.40753,771.2550699999999,770.4652999999998,769.257,768.3727999999999,766.2021,765.79755,764.2704000000001,762.5214,762.4586,760.24713,760.4483,759.2285000000002,757.63275,756.7582,755.9892,754.4838,753.2027600000001,657.7232666015625,656.5975341796875,653.0503540039062,651.756103515625,651.2716064453125,648.5848999023438,647.673095703125,642.5789794921875,638.7611083984375,635.8954467773438,634.3651733398438,634.3475952148438,632.539794921875,630.4802856445312,630.4589233398438,626.862548828125,623.8685302734375,623.2796630859375,622.0523071289062,621.131591796875,618.533203125,618.22705078125,618.5638427734375,617.1831665039062,616.88623046875,617.8960571289062,617.1339721679688,616.5195922851562,616.5169677734375,616.12109375,616.3397216796875,616.1835327148438,616.4590454101562,617.0594482421875,616.7706298828125,616.6983642578125,616.1942138671875,616.9513549804688,618.2949829101562,617.8860473632812,619.523193359375,620.6327514648438,622.2232055664062,622.9617919921875,627.2348022460938,721.8961,721.0302,721.33545,720.31396,720.42596,720.4021,720.04144,720.33435,719.1978,719.4194,717.7705000000001,718.3518000000001,717.82056,717.8312,718.1946400000002,718.4985,717.6203,718.0875000000001,717.5605,716.30457,715.9864500000001,716.9079,717.12634,715.6516,716.45764,716.5821,716.05994,716.19574,716.81805,716.49396,715.6777999999999,716.22974,716.34314,716.03937
775.7398,774.22125,772.73413,771.8758,770.7926599999998,769.63446,768.2923,767.0417499999999,766.0431,764.5096,764.4509,762.47614,760.6843000000001,758.9385,758.94165,757.3183,757.4406999999999,755.65784,754.4554,753.0683,662.648681640625,661.4013061523438,655.5017700195312,655.1942749023438,649.5158081054688,648.7798461914062,647.3930053710938,641.6961669921875,637.7091674804688,635.5270385742188,634.3558959960938,632.5324096679688,631.7183227539062,628.611083984375,624.5198974609375,622.35791015625,621.8895263671875,620.3258056640625,619.469482421875,619.044677734375,618.6455078125,617.8302612304688,617.058837890625,617.27734375,615.4614868164062,615.694580078125,616.0682983398438,615.55126953125,615.179443359375,615.343017578125,615.5181274414062,615.7252197265625,615.7855834960938,615.7426147460938,615.82958984375,615.2896118164062,616.2239990234375,616.673583984375,617.0701293945312,617.3047485351562,616.9046630859375,619.2434692382812,620.0802612304688,622.7412109375,626.9198608398438,722.0885,721.28595,720.6705999999999,720.3762,719.13837,720.0122999999999,719.9871,718.5326,718.4992,718.7663599999998,718.2982,717.5102000000002,717.5094,717.71704,717.17523,716.7002,717.0709,716.5362500000001,717.00146,716.00104,715.65204,715.37555,716.286,716.0494,715.53973,715.5961,715.7084399999999,715.33997,715.8258,714.9870599999999,715.4684399999999,714.9465299999999,714.87683,715.4204,714.8174
774.5027,773.0060000000001,771.5067,771.15076,769.962,768.90045,767.8067999999998,766.30475,764.5402,764.2321,762.9418,760.6023,760.21155,759.03314,758.3679,756.5615,755.9365,754.2319299999999,753.5441000000001,660.3213500976562,657.1085205078125,656.0636596679688,655.0997924804688,653.8419189453125,653.8779907226562,647.5296020507812,642.42822265625,637.6752319335938,634.7820434570312,633.693603515625,633.1485595703125,630.2802124023438,628.02197265625,625.35205078125,621.5855102539062,620.409423828125,619.8414916992188,617.3450317382812,617.8534545898438,616.255615234375,616.4686279296875,615.8523559570312,615.6084594726562,615.1547241210938,615.0560913085938,614.615234375,614.6964721679688,614.5243530273438,614.2150268554688,614.4492797851562,614.5487670898438,614.6099243164062,616.2891235351562,615.9340209960938,615.43798828125,615.2272338867188,615.8077392578125,616.2730102539062,615.9110107421875,616.7009887695312,617.6900024414062,619.5520629882812,621.6298828125,625.7306518554688,720.7817,721.2876,719.8776,720.18317,719.2105000000001,718.6917,718.9755,718.1882,717.0605,718.2934,717.7888,716.88257,717.3441,717.3123,716.7266,716.2639,715.58203,715.96545,715.2028,715.2333999999998,715.7156,714.56616,714.71075,714.2245,714.2015000000001,713.95245,714.7823,713.66736,714.31055,714.1651,714.8316,714.497,714.6957399999999,715.0847999999999,714.1015600000001,714.05524
774.226,771.815,771.1581,770.45905,769.6254,767.6594,766.24274,765.3517,764.01135,762.1623,761.8487,759.9325999999999,758.8108,757.4859000000001,757.07153,755.828,755.1972,659.3450927734375,660.3938598632812,656.7794189453125,654.2354125976562,651.6763916015625,649.030517578125,647.8358764648438,646.4295043945312,641.6973876953125,639.3628540039062,636.5404663085938,633.2391357421875,632.5089111328125,629.9431762695312,627.2950439453125,624.0784912109375,623.0234375,618.9737548828125,618.367919921875,616.8920288085938,615.397705078125,615.8524169921875,615.8222045898438,614.5221557617188,614.0543823242188,613.750244140625,613.4981079101562,613.6245727539062,612.8344116210938,613.3659057617188,614.3950805664062,614.4346313476562,612.6832275390625,613.7408447265625,614.4080810546875,614.5195922851562,615.8143920898438,615.507080078125,616.0941162109375,615.8472900390625,614.9697875976562,616.2416381835938,616.4097290039062,618.178466796875,620.7427978515625,720.8515,721.3626,720.4154,720.20557,719.22003,718.6339,717.7855999999999,718.5976600000001,717.49994,717.9175399999999,717.6698999999999,716.0645,715.9358,716.75854,716.2948,716.7752,714.8647,715.6477,715.07666,714.4156499999999,714.6508,714.3061,714.5301,713.9595299999999,714.7015,714.07983,713.3790999999999,713.30914,713.39,713.3812,713.902,713.49286,713.3047999999999,712.88135,713.5099,713.3115,712.9017,712.79584
772.0076,771.3498500000001,770.1232,769.7407,767.8215,766.9631300000001,765.4391499999999,764.0569500000001,763.757,761.3223,760.6269,759.8965499999999,758.6996,758.1146,755.69073,755.0870399999999,753.3314,659.1256103515625,655.7793579101562,652.1409912109375,648.097900390625,644.42138671875,644.5902099609375,645.4781494140625,641.7133178710938,638.4461059570312,636.5172729492188,634.44921875,632.62939453125,630.2432861328125,627.135498046875,622.1275634765625,620.8599853515625,619.0574951171875,618.300048828125,617.2857666015625,615.4966430664062,615.0692749023438,615.021484375,614.181640625,613.447998046875,611.9798583984375,611.438232421875,611.572021484375,611.3410034179688,610.842041015625,611.666259765625,610.1585083007812,613.1826782226562,611.5846557617188,612.3346557617188,611.3018188476562,613.579833984375,614.7338256835938,616.0311279296875,615.6090698242188,614.84228515625,615.0999755859375,615.454345703125,616.6761474609375,721.19934,720.6629599999999,719.9172999999998,719.4506,719.1829,719.1612499999999,718.6671,717.27045,717.5939,717.0714,716.79144,716.41956,716.5339,715.2202,715.2208,715.07367,715.15436,714.76917,714.7146599999999,713.4798,714.5583999999999,714.25006,714.15936,713.38837,713.31177,713.5621000000001,713.45325,712.7959,712.64905,712.82635,713.2331999999999,712.84247,711.91956,712.54706,711.99664,712.8103999999998,711.89606,713.04596,712.36554,712.62274
771.9547,771.0621000000001,769.4284700000001,768.7502,767.6676,765.8574,764.44727,763.7161000000001,762.1227999999999,760.5953,759.3488,759.0216,758.2902,756.44086,755.5669,753.974,659.6102905273438,655.7803955078125,653.0445556640625,651.35498046875,645.6686401367188,639.1708374023438,642.131591796875,642.8839111328125,639.9082641601562,637.2692260742188,635.2870483398438,633.0662841796875,629.9852294921875,625.1061401367188,626.60595703125,621.7781372070312,619.3903198242188,618.0974731445312,616.4759521484375,615.5825805664062,614.3663330078125,614.145751953125,613.5989990234375,613.4285278320312,613.1615600585938,609.9177856445312,610.3601684570312,609.8020629882812,609.1492919921875,608.8992309570312,609.0928955078125,609.7559814453125,611.0597534179688,611.2260131835938,611.4364624023438,611.6683349609375,613.3341064453125,615.4080200195312,615.715576171875,617.4501953125,616.1309814453125,616.3919677734375,617.1968383789062,721.0086,721.5009,720.4016,720.0444300000001,719.0812,718.6399,718.11694,717.48505,717.47766,716.9938,715.78186,715.8573,716.169,715.4795,715.1651000000002,714.47156,714.5246,714.35,714.22064,714.29346,713.4259,713.3368,713.8289,713.0359999999998,713.84186,713.09894,712.7603,711.9043,711.9393,712.1587999999999,712.1799,711.9654,712.47565,712.1494,712.29803,711.91846,711.63904,711.8649,712.0072,712.13916,712.3453
771.1133,769.9269400000001,768.31177,767.8067999999998,767.2868700000001,764.62787,764.24805,763.1231,761.49567,760.52783,758.83746,757.5554,757.6000999999999,755.13824,656.6160888671875,655.397705078125,654.2974243164062,652.3192138671875,651.4827270507812,647.5083618164062,646.0308227539062,643.9710693359375,643.5843505859375,640.6182250976562,637.8689575195312,636.1305541992188,633.9258422851562,630.2274169921875,625.0109252929688,624.0831298828125,622.5133056640625,618.8798217773438,618.55419921875,616.6940307617188,615.5965576171875,614.4657592773438,614.0499267578125,613.0526123046875,612.4295043945312,612.1807861328125,612.0455932617188,609.4686279296875,606.2909545898438,607.665283203125,607.7006225585938,608.2743530273438,609.7412109375,608.81005859375,608.489501953125,610.478759765625,610.823974609375,612.507080078125,614.1380615234375,617.0486450195312,618.176513671875,619.7041625976562,617.1544799804688,619.705078125,721.13257,720.4527,719.92535,718.7293,717.6554,718.7925,717.634,716.9214999999999,717.11176,716.1188400000001,715.36664,715.2698,715.3744,715.0379,715.00006,714.70715,714.23737,714.2769,713.7575000000002,713.7344,712.79474,712.84155,713.32556,712.2197,712.16516,712.3832,711.9483,711.20404,711.61237,712.351,711.5274999999999,711.6017999999999,711.05725,710.6763,711.2453,710.73615,711.4022,710.39734,711.3909,711.3596,710.9457,710.8252600000001
770.1202,768.9932,768.0764999999999,766.6972699999999,764.9966,764.59375,763.0217,761.8065,761.08704,760.14435,758.3041000000001,756.2768,755.9293,654.4443969726562,654.2745971679688,653.35595703125,652.2542724609375,649.5130615234375,646.981201171875,643.9491577148438,644.376708984375,643.496826171875,639.6455078125,637.2019653320312,635.6473999023438,634.0809936523438,631.3469848632812,627.3177490234375,624.2893676757812,621.853515625,621.0211791992188,617.8216552734375,617.1017456054688,615.6956787109375,613.9173583984375,613.7301025390625,611.9801635742188,611.8040161132812,610.5858764648438,609.97509765625,609.1741333007812,608.4473876953125,607.7117309570312,607.7359619140625,606.8426513671875,605.5914306640625,607.8401489257812,609.5523681640625,608.634033203125,608.3663330078125,610.9166870117188,611.7199096679688,615.20068359375,617.0953979492188,621.4829711914062,618.7131958007812,721.5052000000001,721.3522,720.3452,720.25964,718.98865,718.46295,717.60016,717.0776,716.42377,716.5261,715.6103,715.7396,714.0747999999999,714.16425,715.1444000000001,715.08154,714.24396,713.3173,713.09436,713.05054,712.57666,712.65985,712.4606,711.66327,712.0677,711.8282,711.87726,710.53876,711.1336,710.5883,710.6569,710.8522,710.2354,710.72577,710.56177,709.9192,710.2772,710.4026,709.99725,709.7603000000001,710.9635000000001,709.9303599999998,710.29767,710.27234
769.70483,768.14026,767.25006,766.3,764.5705,763.89014,762.1835999999998,760.26556,759.39844,758.5105599999999,758.35803,756.4892599999998,651.7267456054688,655.49951171875,652.62841796875,650.0907592773438,648.54638671875,645.908203125,644.0393676757812,642.7655639648438,640.1737060546875,638.3497924804688,635.1544799804688,635.3186645507812,633.5478515625,630.4501342773438,627.4288330078125,624.6563720703125,621.1670532226562,619.730712890625,618.4037475585938,617.2937622070312,616.161376953125,614.88818359375,613.8941040039062,612.1773071289062,610.3878784179688,610.6288452148438,608.4015502929688,609.4388427734375,608.333251953125,606.6343383789062,605.1414184570312,606.4346313476562,606.496826171875,606.0752563476562,606.8776245117188,608.0161743164062,610.7045288085938,611.142578125,612.3802490234375,612.8991088867188,617.2759399414062,620.474365234375,721.8743,721.43665,720.5591400000001,720.2527,719.6806000000001,718.80646,718.25214,717.2459000000001,715.6613,716.59106,715.43567,715.1877,715.4518,714.35626,714.4737499999999,713.55774,712.7103,713.4369000000002,712.748,712.9470000000001,712.1052,711.9061,711.7161999999998,712.7612999999999,711.9927,711.5386,711.0397,711.0175000000002,710.6632,711.34143,709.9502,709.7920999999999,709.76605,709.80255,709.80975,709.6864,709.4336,709.5871,709.42175,709.55426,709.43365,709.5223999999998,709.4671,709.402,709.5973000000001,709.48267
768.7851,767.8752,766.21875,764.68396,763.8133,762.4927,760.6125,759.0006,758.74603,756.8359,756.5535,756.1623499999998,652.1331176757812,651.3551025390625,649.4814453125,648.0534057617188,644.2509765625,641.315185546875,641.7179565429688,640.5431518554688,638.3619995117188,636.1917724609375,634.9078979492188,633.7271728515625,632.1105346679688,629.22802734375,625.6061401367188,622.293701171875,620.4158325195312,618.1114501953125,616.6904296875,615.350341796875,614.8846435546875,614.196044921875,613.3261108398438,611.1206665039062,608.949462890625,609.641357421875,608.8897705078125,607.6288452148438,605.6273803710938,605.2198486328125,603.663818359375,604.1613159179688,604.4833374023438,606.0523071289062,606.8531494140625,606.7435913085938,610.48388671875,616.67431640625,616.6354370117188,617.4864501953125,722.4135,721.7645,720.6103,719.6062,719.1768,720.0428999999999,719.2517,718.5080600000001,716.7683,716.5574300000001,715.83923,714.82117,714.6233,715.01855,713.4643,713.55945,713.7388999999998,713.4622,712.23584,712.94525,713.36993,712.02423,711.40283,711.735,710.94586,710.95013,710.6210999999998,710.2071,710.3574000000001,710.49695,709.9124,709.4025,709.373,709.1798,708.5364,709.4338400000001,709.28485,708.4415,708.6629,708.7809400000001,707.87115,709.1607999999999,708.8009,708.6085,708.9475,708.9839,709.0642,708.97974
768.2656,766.5081,765.3376000000001,763.3194000000001,762.15106,762.2862499999999,760.9083,760.0227,757.88904,756.7334600000002,755.78015,651.6458740234375,647.9776000976562,646.3190307617188,647.2635498046875,644.839111328125,641.0772705078125,639.88623046875,638.8538818359375,637.9810180664062,637.4977416992188,634.70263671875,632.809326171875,631.7234497070312,628.379150390625,626.2050170898438,622.1591796875,620.244140625,618.22265625,618.171875,616.4819946289062,615.7797241210938,614.4039916992188,613.1927490234375,611.9927368164062,610.2711791992188,609.87158203125,608.8330078125,607.1805419921875,605.5014038085938,603.80810546875,603.7620849609375,604.1173095703125,603.4594116210938,604.5746459960938,604.8975830078125,606.524658203125,608.6304931640625,613.6668701171875,615.4395141601562,615.7318725585938,722.0245,721.7943,720.9776999999999,720.3708,719.53925,719.61194,718.1230500000001,718.213,716.54,716.8917,715.65295,714.93585,713.7635,714.223,714.017,713.322,713.26764,711.9158,711.7161999999998,711.9187999999999,711.9542,711.0742,711.1516,710.40125,710.3462,709.6371999999999,710.4865,709.9239,709.7045,709.6788300000001,709.699,709.3664,708.5141999999998,708.35913,709.4311500000001,708.8067,707.95184,707.9673,709.0549,709.3982,707.67566,707.65063,708.4335999999998,707.9863,707.6640599999998,707.74426,707.9371000000001,707.8357,707.97845
768.06323,765.7036,764.6912,762.91345,762.61847,760.33594,759.85455,758.18884,757.48114,755.9965,755.4047,648.9705200195312,649.6280517578125,647.3135375976562,644.57421875,642.2329711914062,639.2349853515625,639.0022583007812,636.9761962890625,635.7710571289062,634.4246215820312,632.4320678710938,631.82373046875,629.9760131835938,627.1808471679688,625.0812377929688,620.6299438476562,619.237548828125,618.4197998046875,616.67626953125,616.1725463867188,615.6943969726562,614.3314208984375,613.5601806640625,610.6798706054688,610.5777587890625,608.7455444335938,607.4763793945312,605.3311157226562,604.6319580078125,603.2987670898438,602.5977783203125,603.4913940429688,602.46435546875,602.89404296875,604.7581787109375,605.679931640625,609.7596435546875,613.430419921875,616.0484619140625,615.9462280273438,720.89716,720.8346,720.1974,719.2119,719.2314,718.3969,716.9212600000001,717.73376,716.092,716.2216,714.7754499999999,714.3866,714.2972399999999,712.83734,713.2938,712.7755,712.1164999999999,712.2830999999999,711.7865,711.5921000000001,711.60474,711.15045,710.1703499999999,710.0681,710.0176,709.93024,709.67224,709.22955,709.4476,709.0434600000001,709.238,708.82697,708.7481,708.8156000000001,707.8112999999998,707.8403000000001,707.9445,707.4982,707.49976,707.61053,707.7342,707.03204,707.4242000000002,707.27783,707.751,706.9075,706.9998,707.2781,707.1758
765.7389,765.3477,763.3727,762.6752,761.8759,760.1697,759.4705,757.94104,756.1623,755.0739,650.5667724609375,655.027099609375,649.0294799804688,643.7882080078125,640.9426879882812,638.7137451171875,637.1648559570312,636.4268798828125,635.4542846679688,633.2364501953125,632.2362670898438,631.16357421875,629.7985229492188,627.9072265625,625.9718017578125,621.7638549804688,620.1175537109375,618.8917846679688,616.8558959960938,616.43408203125,615.5987548828125,614.8228759765625,614.4041137695312,612.6995849609375,610.4468994140625,609.3521728515625,607.2156372070312,606.281982421875,605.8016357421875,604.7880249023438,603.0740966796875,603.2056884765625,602.4647827148438,602.59423828125,602.3890380859375,606.1675415039062,609.462158203125,609.7015991210938,611.2700805664062,614.9008178710938,721.5949,720.5861,720.2049,719.5924,718.5062,718.20447,717.5562,717.1829,716.50616,715.3161,714.6065999999998,713.5213999999999,713.5081,713.0643299999999,712.5063,711.6089999999999,711.84937,712.1290999999999,710.7382,710.58875,710.8213,710.43335,710.6415,709.7619,709.7062,709.4755,709.174,708.9595299999999,708.5654999999999,707.26154,708.52216,708.47125,707.8082,707.6538,707.40295,706.96344,707.8769,707.30615,706.81964,706.8668,706.2836,705.5249000000001,705.8140000000001,706.7929000000001,706.468,706.7648299999998,705.8497,706.009,706.5862400000001,706.8616
766.16956,764.30884,763.7289,761.9386,760.6137,759.17773,757.6957,757.3215300000002,755.4179999999999,754.9054,649.9924926757812,648.7333374023438,646.798583984375,641.6409912109375,638.45458984375,636.3907470703125,633.119140625,632.1408081054688,633.37255859375,631.1906127929688,630.6416625976562,629.43017578125,627.0538330078125,623.69091796875,622.144775390625,620.5842895507812,619.1572875976562,617.4600219726562,616.777099609375,615.1124267578125,615.4205932617188,614.994384765625,614.4143676757812,611.7783813476562,610.7570190429688,608.4509887695312,606.6884765625,606.5508422851562,605.6990356445312,604.3594970703125,602.9512939453125,602.96875,601.9813232421875,603.7442626953125,606.0743408203125,609.2382202148438,609.0864868164062,609.157958984375,609.6453857421875,612.7052612304688,617.9612426757812,719.9576,719.26025,719.0632,717.52844,717.63965,716.6589999999999,716.0889,715.46216,714.9459,713.9122299999999,713.4332,712.4267599999998,712.24896,712.2475,711.7481,710.7698,711.1485600000001,710.34265,710.2093,709.9485500000001,709.8048,709.9555,708.99115,709.0533,708.7038,709.3742,708.8686,708.1066,707.1368,707.6089,707.53015,707.07715,707.05133,706.4383,706.54266,706.386,705.8104000000001,706.1262999999999,705.64667,706.30115,706.0332,705.9738,705.53406,705.4544,705.33856,705.9249,705.13214,705.6779,706.0420999999999
765.1901,763.65247,762.2832,760.6795,759.7816,757.7977,757.5503000000001,756.1492,754.4551,753.5981400000001,650.5172729492188,646.1656494140625,642.7965698242188,639.5714111328125,637.6945190429688,635.2993774414062,631.578369140625,633.527587890625,631.0338134765625,630.1104736328125,628.3276977539062,627.94677734375,627.2064208984375,623.5269165039062,621.2855224609375,620.1934204101562,617.950927734375,615.8048706054688,616.0701293945312,615.7310791015625,614.8932495117188,614.8663330078125,613.6885375976562,612.4738159179688,610.7987060546875,609.1827392578125,607.795654296875,606.0311889648438,605.5714721679688,605.2102661132812,604.4141235351562,604.5126953125,606.5816650390625,607.0475463867188,606.9918823242188,608.55322265625,608.4849853515625,609.0577392578125,609.1357421875,611.8065185546875,615.5390625,719.6096,718.322,718.2466999999999,716.2331,716.6296,715.5931,715.5171,715.28503,714.44525,714.32043,712.97894,711.9299,711.8249000000001,710.57477,711.1032,710.4102,710.3037,709.9433,709.8305,709.518,709.2667,708.2791,708.08295,708.5220300000001,708.7666,707.9577,708.72473,707.3344,706.1366599999999,707.0196999999998,707.06683,705.4313,706.0123999999998,705.20123,705.1716999999999,704.8608,705.47034,705.5045,705.2071,705.59174,704.60095,704.4727,705.019,704.5065999999999,704.9163,705.37036,705.2052000000001,704.83167,704.6716000000001
764.8308,762.9258400000001,761.8601,760.3321,759.557,757.5424,756.4768000000001,755.4525,754.0448000000001,644.7842407226562,647.6915283203125,646.1116943359375,642.758544921875,639.4921264648438,637.0362548828125,635.6051635742188,634.0603637695312,631.69189453125,628.4573364257812,628.373291015625,627.3886108398438,626.6963500976562,623.2391967773438,622.3363037109375,619.104736328125,617.8836059570312,616.84619140625,616.315673828125,615.1452026367188,614.4030151367188,614.8502197265625,614.696044921875,613.0856323242188,611.6162719726562,611.128662109375,610.0667724609375,608.8577270507812,607.526123046875,606.4215087890625,606.384765625,607.7911987304688,607.7509765625,606.058349609375,605.508544921875,605.1734008789062,606.2662353515625,607.1578369140625,607.9794311523438,608.954833984375,610.7539672851562,614.6243896484375,612.5830688476562,717.3150599999999,716.8201,716.8775,716.0692,715.44196,715.0609,714.62286,713.7266,712.4612,712.21857,710.68353,711.4263,710.28094,710.3984,709.75134,710.00385,709.4124,707.74884,709.0677,708.1766,707.4474499999999,706.5952,707.32935,707.0038,706.9033,707.19196,706.2354,705.6991600000001,706.4102,706.0152,705.81573,705.58215,704.77106,704.1948,704.84937,705.3647,704.4283,704.1624,703.89374,703.6828,704.1981,704.42316,704.50775,704.3300999999999,704.7728,704.4386,704.09094,703.9659
763.5686,762.90186,760.44183,759.83923,758.2228,757.2909,755.90216,754.6842000000001,753.9288999999999,648.9485473632812,645.5606689453125,641.7407836914062,639.60693359375,636.6273803710938,635.0703735351562,632.70703125,631.56787109375,629.3723754882812,627.934814453125,627.178466796875,626.2818603515625,623.8765258789062,621.3889770507812,620.8486328125,619.0518188476562,617.77099609375,616.6275024414062,615.7437133789062,614.7569580078125,614.8408203125,615.1499633789062,614.1934204101562,615.057373046875,612.9959106445312,611.2911376953125,611.1088256835938,612.248779296875,609.0720825195312,607.3548583984375,606.9019165039062,607.5176391601562,606.2120361328125,605.2088012695312,604.9879150390625,604.8496704101562,604.8391723632812,606.3441162109375,607.1397705078125,608.408935546875,609.9849243164062,611.746826171875,617.621826171875,717.2136,716.5245400000001,715.5940599999999,715.25836,714.6593,714.56415,714.6826999999998,713.2613000000001,711.50604,712.1473000000001,710.87067,710.4975,709.5124,709.7558000000001,708.82806,708.95917,708.6733000000002,708.54376,707.58105,708.2703000000001,706.9839,706.4375,705.9389999999999,706.6016,705.4966,706.8416,705.17566,705.9364600000001,704.8726999999999,705.69275,705.46826,704.31006,703.7341000000001,704.01263,703.87384,704.1235,703.998,704.19867,703.3476,703.888,703.9007000000001,703.2563,703.97565,704.20715,703.45197,703.8143,704.1742,703.1316000000002
763.0201999999999,761.103,759.87274,758.66876,758.204,756.61456,755.12354,754.2550700000002,752.9834600000002,645.1187744140625,643.3735961914062,640.2107543945312,637.7775268554688,635.0263671875,634.1184692382812,632.4913330078125,628.7789306640625,628.0794067382812,626.668212890625,626.3975219726562,624.233154296875,620.7071533203125,621.522216796875,619.175537109375,618.1646728515625,617.8937377929688,616.8133544921875,615.1392211914062,614.6046752929688,615.0520629882812,614.8826904296875,615.2885131835938,614.006103515625,613.7158813476562,613.59130859375,611.950927734375,608.4329833984375,608.7569580078125,607.0135498046875,606.6333618164062,605.8170166015625,604.6179809570312,602.9196166992188,604.564453125,604.087158203125,604.8794555664062,604.9418334960938,606.3016357421875,606.6553344726562,607.9951782226562,608.940673828125,613.2904663085938,716.0677499999999,714.7828,714.7444,713.6251,713.1539,713.34076,712.3904,712.35913,711.23505,710.7912999999999,710.3634,710.61273,708.6928,708.6557,709.07404,708.297,707.6008,706.4649,707.309,706.8551,707.0328,705.2389,704.95996,704.9211,705.18274,705.6712,705.4646,703.93805,703.7855,704.67523,704.5714,703.2890599999998,703.5519999999999,702.9835,703.9468999999999,703.85767,703.2511999999999,702.7071,703.0602,701.8055000000002,702.1756,702.97766,702.68164,701.8296499999999,702.9938400000001,702.9463,702.0198,702.5703
762.3785399999999,761.01764,758.9049,757.86615,757.5964,756.5630999999998,754.31494,753.2563500000001,644.872314453125,644.191162109375,641.4248046875,638.7128295898438,636.4544677734375,633.417236328125,631.0789794921875,628.634521484375,627.7849731445312,626.6823120117188,625.5397338867188,625.8605346679688,623.5940551757812,620.7539672851562,619.8690795898438,619.188232421875,617.763427734375,616.7308349609375,616.2522583007812,616.3212280273438,614.7407836914062,614.9629516601562,614.750244140625,615.6703491210938,615.8780517578125,615.2213134765625,612.3851928710938,612.7183227539062,611.0699462890625,609.1119995117188,608.0045776367188,606.0304565429688,605.4710693359375,604.62646484375,603.0609741210938,603.91259765625,603.5186157226562,604.2252807617188,604.4322509765625,605.0799560546875,606.0110473632812,606.5543212890625,607.2496337890625,609.8541259765625,716.1654,715.0001,714.90436,713.6192600000002,712.66003,712.4534,712.1082,711.7532,711.1534,710.4039,710.3752,709.0391999999999,709.841,709.1616999999999,708.0899999999999,707.6035,707.6829,706.5869,706.7796,705.9286,706.33545,705.2154,705.2239,704.89966,704.0571,704.7623999999998,704.2474,703.11005,704.2347,704.63635,703.86176,703.0956000000001,702.4012500000001,702.66205,702.8886,702.67786,702.28876,702.169,702.1206,701.9365,701.6203,702.4267,703.3778,702.8267,702.13464,701.65436,701.9522,702.237
760.7054,759.33405,758.7729,757.55334,756.1906999999999,755.4417,753.8739,752.51086,752.3652,642.3446655273438,639.7178344726562,637.1552734375,634.3575439453125,632.4351806640625,629.7853393554688,627.9526977539062,626.5631713867188,626.2238159179688,624.4603881835938,624.4656372070312,622.5796508789062,620.8359985351562,618.8599853515625,618.9548950195312,616.6610107421875,615.7728271484375,617.0089721679688,616.3919677734375,615.717529296875,615.9577026367188,617.07373046875,617.9308471679688,616.0067138671875,612.96435546875,727.40753,612.89892578125,610.4402465820312,608.9324951171875,607.3919067382812,605.7614135742188,604.5049438476562,602.991943359375,602.9279174804688,602.5956420898438,603.6656494140625,603.7166748046875,604.060546875,605.2347412109375,604.9310302734375,605.5311889648438,607.7152099609375,610.2324829101562,617.9659423828125,714.5018,713.83673,713.8205,712.3813,711.7166,711.708,710.9163,710.4812,710.4165,709.30756,708.6958,707.84,709.2049,707.3231,706.70966,706.1556,705.8556999999998,706.4486999999999,705.4067399999999,705.0448,703.9575,703.60815,703.7652,703.95105,704.1578400000001,703.5238000000002,702.7753,704.17816,703.2256,702.54865,702.3726,701.57465,702.1892,701.739,702.3112000000001,701.6988000000001,701.1451,702.1335999999999,701.2714,700.6921,702.06323,701.0594000000001,701.3092,701.6747399999999,702.0372,700.9652,700.81006
761.1474,758.663,757.73566,756.6477,756.0267,753.6983,753.2977,752.3044,751.0953,641.3394775390625,637.66552734375,635.323486328125,633.2005004882812,631.248046875,629.3635864257812,627.2203979492188,625.8882446289062,624.8370361328125,622.9229125976562,623.1561889648438,621.4144897460938,619.5836181640625,617.953369140625,618.6494140625,617.18896484375,617.683837890625,616.7962036132812,617.5316772460938,616.80224609375,616.4159545898438,729.4902,728.9678000000001,728.4862,727.1515,726.0803,725.54755,611.3385620117188,608.7622680664062,606.3621215820312,605.0223388671875,603.2396240234375,602.485107421875,602.4926147460938,601.8765258789062,602.3287353515625,602.3157958984375,603.3082885742188,604.3884887695312,603.9095458984375,604.8883666992188,606.2210083007812,608.3558959960938,613.7938232421875,713.6775,712.25116,712.8161,710.6872599999999,711.53204,711.4911,710.5328399999999,710.1529,709.51044,707.8461,707.65753,707.57404,707.6597000000002,706.32806,706.2573,705.80115,704.6200999999999,705.09735,705.1734,704.5673,704.0357,703.5024,703.20795,703.9348,704.0783999999999,703.1453999999999,702.0369,703.1959,702.2128,702.092,702.13104,701.748,701.1599,701.47943,701.8046000000002,701.3298,700.81915,701.0935,700.8878,700.5499,701.4964,700.93085,700.6521,701.23694,700.75684,699.9775,700.8932500000001
759.7148400000001,758.4357,756.90906,756.50714,755.66833,753.9633000000001,752.5192,751.7298,750.15796,638.76611328125,636.4544067382812,634.2886962890625,632.3275146484375,630.5858764648438,628.2799682617188,626.1797485351562,624.5208129882812,623.1829223632812,622.0797119140625,620.8489990234375,619.6058349609375,619.782470703125,618.180419921875,620.4918823242188,618.552001953125,617.526123046875,620.0642700195312,619.49658203125,731.2073399999999,730.2594999999999,728.8658,728.1522,726.89954,725.35834,726.1728,725.09125,724.1819499999999,609.004638671875,605.2413330078125,603.4112548828125,602.1685180664062,601.700927734375,600.3723754882812,600.2702026367188,600.287841796875,600.3697509765625,600.27880859375,601.5972900390625,602.6307373046875,604.1026611328125,604.8641357421875,607.903076171875,610.4818725585938,713.1987000000001,711.77527,711.23785,711.23517,710.944,710.58545,710.304,709.5653,708.7091699999999,707.2874,707.48926,706.7867,707.32776,705.9129,705.4540399999998,705.6059600000001,704.8573999999999,705.11615,705.10516,704.0867000000001,703.275,702.8549,703.1804,702.8459499999999,702.2459000000001,702.6051,702.4274,701.63104,702.6422,701.2909,700.7057499999999,700.7167400000001,701.163,701.54877,700.88367,700.4565,700.32965,699.583,699.5382,700.10095,699.86945,699.4678999999999,700.5055,700.24866,700.398,699.7036,700.4347
759.4475,757.80896,757.18115,755.29834,754.14154,752.6976,751.604,750.2819999999999,749.9495,749.22345,636.618896484375,634.2073364257812,632.1679077148438,630.38330078125,627.2516479492188,625.4389038085938,624.1382446289062,622.4183959960938,622.6082763671875,622.7650756835938,621.168701171875,620.6800537109375,620.3483276367188,734.70605,733.57794,732.43445,731.6972699999999,731.2117,730.0548000000001,728.8296,727.8436,727.28815,726.08356,726.1219,724.71606,723.7091699999999,610.8419799804688,606.2846069335938,603.1961669921875,602.2359008789062,602.0760498046875,600.7206420898438,599.0743408203125,599.4932250976562,598.9188232421875,598.47216796875,599.3381958007812,600.880859375,599.73193359375,602.6646118164062,603.804443359375,606.2759399414062,610.8592529296875,712.43866,711.7762,711.2031,711.0397,710.61346,710.0471,709.2646,709.2563,707.104,706.67236,706.66974,706.0551,706.0956999999999,705.9455,704.4402,704.7251,704.21643,704.22504,703.6159,702.79156,703.0629999999999,702.47546,702.2283300000001,702.22375,702.5942399999999,702.41766,701.8417999999999,701.37286,700.6606999999999,700.9112500000001,700.1554,700.54126,700.28467,700.0836000000002,700.63184,699.3057999999999,699.7054,699.3758,698.5078,700.0651,700.63403,699.6652,699.8643,699.9005,698.8885,699.01154,699.7860000000001
758.3355,757.4409,755.8405,754.5455,753.51086,752.3924,752.1425,749.8965,749.69824,748.1984,746.88525,633.9068603515625,631.4126586914062,629.8138427734375,627.7190551757812,625.8550415039062,626.0704345703125,624.0409545898438,623.4214477539062,623.54443359375,736.5076999999999,735.89154,734.8338,733.65314,732.5129400000001,731.6298,731.5968,731.3401999999999,730.1358600000001,727.61597,727.7207599999999,727.191,725.42255,725.9189000000001,723.89966,723.8343499999999,606.9806518554688,604.1954345703125,601.10107421875,602.6043090820312,601.1866455078125,599.2479248046875,597.6978149414062,597.2028198242188,596.474853515625,597.1892700195312,599.0628662109375,601.8153686523438,603.1539916992188,604.1931762695312,605.5872802734375,609.8290405273438,614.9767456054688,712.2856,711.32965,710.7972,710.1351,710.233,709.23456,707.5077999999999,707.9278999999999,707.8834,706.8306,705.8833,704.6727,704.9059,704.5599400000001,703.75446,704.0499,703.2493,703.51044,702.1709,702.1402,701.7626,702.14996,701.96796,701.77167,701.1414,700.37573,701.08075,700.48755,700.80414,700.2961,700.08594,699.7814,699.91943,699.46893,699.4452,699.21783,699.0897,698.9075,697.9511,698.57074,698.90424,699.07764,698.6449,697.96826,698.02795,698.3752400000001,698.2039
758.46497,756.9581,755.4047,754.6145,753.71356,752.7385000000002,751.54785,749.9481000000001,748.402,747.51776,746.707,745.22626,632.0252685546875,631.3857421875,630.4630126953125,630.626220703125,626.803466796875,739.7794,738.0205,737.0902,735.4647,735.3932,734.2005,732.9246,732.0133699999999,731.3079,730.395,729.10236,728.34717,727.0691999999999,725.96655,725.3988000000002,725.4648,724.7201,723.9317,723.3477,609.011474609375,605.4825439453125,602.23828125,601.4043579101562,598.2850341796875,597.1627197265625,595.2453002929688,597.6907348632812,596.3538208007812,599.5160522460938,598.2958374023438,603.1669921875,603.9114379882812,605.1315307617188,607.7109375,612.9351806640625,711.9777,711.14075,710.62354,710.4973,709.9852,709.0711699999999,708.62994,708.3933,707.6848,706.9640000000002,705.4756499999999,704.9041,704.6835999999998,705.34894,704.2080699999999,703.23645,703.9616,702.57587,703.0051000000001,701.9973,702.3177,701.7447,701.1953,701.24194,701.6084,700.7245,699.8856,699.7951,700.2452,700.4847,699.142,698.84924,698.5436,698.2567,699.4059400000001,698.92004,698.2853,698.7086999999999,697.83734,698.3020999999999,698.00964,698.9215,698.3771,697.6254,697.8031,697.6959999999999,698.0271600000001,698.4734000000001
758.5878,756.40796,754.9327,753.3221000000001,752.67346,750.8203000000001,750.4681,749.37787,747.5428999999999,747.1355,746.2295,744.5892000000001,743.8165000000001,742.7072,741.3023699999999,740.1147000000001,740.2011,737.7382,737.33093,735.9107,735.8132,735.0923,734.2906500000001,732.3281,731.54266,731.14795,730.2791,729.8465,728.41223,726.96075,725.38135,725.8753,725.2209,724.1904999999999,723.5907,722.072,610.3220825195312,608.7422485351562,604.984619140625,603.4205322265625,604.0528564453125,602.545654296875,602.89306640625,602.531982421875,602.5097045898438,600.9384765625,602.477294921875,603.1832275390625,603.3474731445312,605.4525146484375,607.0779418945312,612.0648803710938,711.5549999999998,710.7549,710.39886,709.55914,709.1582,709.05457,708.1236,706.46594,706.4594,705.0302999999999,705.13696,704.52216,704.183,704.18164,703.0412,703.6057,702.7533,702.04663,702.3305,701.66003,701.2666,701.5564,701.4725,699.97974,699.99506,700.6473,700.27277,699.9222399999999,700.32745,699.4486,698.3979,697.9603,697.90845,697.9411,698.36456,697.48395,697.2909,698.535,697.9404,696.80115,696.97473,697.635,697.76636,697.7984000000001,697.1684600000001,697.37573,697.7356,696.9184
756.4243,756.07733,754.3728999999998,753.23846,752.5192,750.42126,749.6828,747.38763,747.35614,745.9011,745.03735,744.08374,742.6158399999999,741.61536,740.7926,739.75214,737.53174,736.8181,736.539,735.29004,734.1787999999999,733.6947,732.8958,731.8003999999999,731.76404,730.2729999999999,728.60626,728.7035000000001,727.8969,726.88635,725.9544,724.741,724.3631600000001,724.0137300000001,722.85803,722.17145,610.2781372070312,611.0838012695312,607.1781616210938,604.4425659179688,604.0997924804688,602.4193725585938,602.946044921875,602.100830078125,601.673095703125,600.450927734375,601.847900390625,602.1414794921875,602.9955444335938,604.663818359375,606.912353515625,611.4041137695312,711.0735999999999,710.7730000000001,709.5715,709.2348,708.3669399999999,708.5479,707.2574,706.98895,705.1728,705.0865999999999,704.4623,703.3786599999999,703.9655,703.34436,702.2321999999999,702.7737,701.944,701.4917,701.5886,701.70276,701.3308,699.90027,700.5034,699.55133,699.54224,699.3995,699.3616,698.352,699.66284,698.42706,698.177,698.3119999999999,697.25885,696.9451000000001,697.9556,698.0827,697.3369,697.6038,696.5555,696.90515,697.01556,696.8053,697.5256,696.684,696.9876999999999,696.58325,696.61975,696.5069600000002
756.29364,754.8288,753.435,752.9885,751.9682,750.84283,748.4468400000001,747.8404,746.9282,745.0623,744.3370400000001,743.6798999999999,741.9599,741.56384,740.5119,739.13654,737.6937,737.3398,736.4718,735.1128,734.32275,733.0591,732.5127,731.614,729.79895,729.9975,729.2530999999999,727.5811,726.2385,726.3655,725.56494,724.285,724.2242999999999,723.14734,722.3667,721.53864,609.1807250976562,611.8873901367188,608.0035400390625,605.8936157226562,604.2001342773438,603.3246459960938,601.7938232421875,601.1315307617188,600.69189453125,601.1573486328125,601.8651123046875,601.972900390625,602.9821166992188,604.3718872070312,606.3710327148438,610.64208984375,710.38275,709.8399,709.20483,708.3547,708.0898,707.76404,706.943,705.9204,705.4025,705.1853,704.3323399999999,703.96,703.3128,703.2042,702.0336,701.4547,701.35126,700.69586,700.9884,700.97955,699.442,700.0462600000001,699.2548999999999,698.9466600000001,699.1454999999999,698.274,699.0569500000001,697.66174,698.12994,698.5362499999999,697.85834,696.8003999999999,697.18823,695.6872599999999,697.0608500000001,696.7793,696.79694,696.3498500000001,696.3077,696.35065,696.2131,696.31464,697.2547,696.17303,697.3515,696.3966,695.7657,695.85004
755.5008,754.17633,753.0210999999999,752.2776,751.5605,749.0305,748.63245,747.29156,746.5165,745.2249,743.72534,742.26715,741.5717,740.2767,740.0570700000001,738.9202,737.67163,736.63116,735.77985,734.2222000000002,733.7724000000001,732.8549,731.9284700000001,730.72266,728.7164,728.2689,728.0865,727.12616,725.88745,725.69885,724.81494,723.0597,723.6944600000002,721.9268999999999,721.5319999999999,721.02576,719.5962,612.7379150390625,609.2918090820312,606.198974609375,604.0689086914062,602.1219482421875,601.1368408203125,601.5073852539062,600.80078125,600.6184692382812,601.758544921875,601.364990234375,602.8595581054688,604.246826171875,605.7177734375,609.6136474609375,709.4633999999999,709.489,707.8857400000002,707.76166,707.1241499999999,706.7704000000001,705.62787,704.8113,705.3021,703.66986,703.6248,702.89905,702.54,702.2781,701.2878,701.57556,700.48315,700.7322999999999,700.06915,699.7828400000001,699.81,699.4963,698.54175,698.58167,698.7586699999999,698.38116,698.0137,697.67957,697.70105,697.4861,696.90814,696.82104,696.36884,696.6318,696.0857,696.2543,696.0105,695.7508,695.1142,695.4483600000001,695.6471,694.5594,695.9369000000002,695.3735,695.1988,694.95996,695.0959,694.8004000000001
754.7400500000001,753.5653,752.829,752.2378000000001,750.34863,749.9149,748.4628,745.77124,745.4731000000002,745.0634,744.2238,742.2779,739.95166,739.5113000000001,622.00634765625,621.3307495117188,621.6171264648438,619.481201171875,619.63623046875,622.6007690429688,622.1542358398438,622.3922119140625,621.9093627929688,730.3718000000001,728.95465,727.9994999999999,726.9489,726.03357,725.6323,724.6885399999999,723.4848999999999,722.9829,722.7468999999999,721.8706,720.7268999999999,719.924,718.3788,612.88427734375,609.0590209960938,606.6976318359375,603.6061401367188,602.2472534179688,600.6970825195312,601.315185546875,600.8970336914062,600.9921264648438,601.5267333984375,601.2276611328125,602.0112915039062,603.719970703125,605.3966674804688,609.081298828125,709.47876,708.80383,707.646,707.9785000000002,706.5735,705.7621,705.8133,704.7986000000001,704.7757,703.6701700000001,702.9166,701.96747,701.8024,701.4395,701.1866,701.0704,700.04565,700.43634,699.73315,699.2687,699.51074,698.9965,698.3616,698.1914,698.0843,697.69366,697.604,696.6787999999999,697.31195,696.99615,696.575,696.4252,696.501,695.70264,696.6913999999999,695.4609400000002,695.2421000000002,695.09357,695.02515,694.9622999999999,694.8323400000002,695.2584,694.8371,694.777,694.5835999999999,694.674,695.1135,694.9451999999999
754.6167,753.5105599999999,752.6478,750.9365,750.29144,748.4229,747.7311,745.9012,744.7955,743.96234,743.144,624.72509765625,627.5206909179688,628.9620361328125,628.2632446289062,625.4471435546875,623.2632446289062,623.3362426757812,624.4345092773438,621.992431640625,620.3211059570312,619.92822265625,619.736572265625,619.4137573242188,618.1854858398438,617.056396484375,618.6968383789062,725.5944999999999,725.1633000000002,724.10144,723.4286,722.8580999999999,721.6197,720.7541000000001,720.05475,719.5781999999999,718.63086,607.8828735351562,609.4014282226562,606.6311645507812,604.2884521484375,602.8626708984375,601.9564819335938,600.96533203125,600.631591796875,600.8065795898438,599.7979736328125,600.15478515625,601.8919677734375,603.3177490234375,604.9749145507812,608.208984375,709.1525,707.46173,707.64435,706.12354,706.44165,705.1873,705.70386,704.3543999999999,704.3735000000001,702.5115,702.5185,702.32623,700.8272999999999,701.9166,700.8639500000002,700.25104,699.104,699.1786,699.0718000000002,698.1482,698.9781,697.1509000000001,697.2501,697.6502700000001,697.3404,698.066,696.3156000000001,695.9954,697.0026,696.28394,695.1872000000001,695.6883,695.25806,695.05536,695.3458,694.5527,695.09906,695.3135399999999,694.02356,694.12823,694.2129,694.5462,694.9207,694.4083,694.3715,693.9929,693.99164,694.6522
754.5958,753.2452,751.7319,751.29834,750.5116,748.32684,747.4784,745.76074,745.24274,628.1547241210938,631.485107421875,628.9983520507812,625.706298828125,623.3229370117188,622.2560424804688,621.304931640625,619.324462890625,618.1268920898438,616.7078857421875,614.4144897460938,615.3751831054688,614.0281982421875,616.3024291992188,616.603515625,615.6250610351562,615.6459350585938,615.9296264648438,613.3427734375,616.703125,724.35736,723.4591,722.3476,721.23615,720.8254,720.06195,718.1923,717.97815,716.954,610.08935546875,607.0175170898438,603.930419921875,603.1553344726562,600.22900390625,601.2141723632812,599.64794921875,601.0010375976562,600.1021728515625,600.3910522460938,600.9131469726562,602.6287231445312,603.5285034179688,607.4908447265625,612.1614990234375,707.72656,706.6656,705.16327,705.55615,705.5897,704.7363,703.98413,703.2140000000002,702.94586,702.5165,701.9351,700.9272999999998,700.965,699.7806,700.18396,698.63904,698.78955,699.5556,698.60254,698.6458,696.5112999999999,696.8027,697.1317,696.2781,696.6333,695.9186,696.62103,694.9673,695.56067,695.19543,694.84357,694.5232,694.6673599999999,694.48254,694.0696,694.0003,694.183,693.9949,693.4576400000001,694.441,693.3342,694.38873,693.7541,692.9867,693.4058,693.6421,694.418
753.6615,752.2995000000001,751.13696,750.7822,748.2941,747.8042600000001,746.1591,746.19727,634.5208129882812,631.2579345703125,625.0840454101562,623.8338623046875,621.1768188476562,618.9027709960938,618.7654418945312,617.495361328125,616.1904296875,615.7545776367188,614.0492553710938,613.4337158203125,614.1041870117188,613.1494140625,612.255126953125,609.89208984375,610.1231689453125,610.6154174804688,611.3748168945312,613.0874633789062,616.6338500976562,616.3668823242188,613.0853271484375,721.5666999999999,721.6753,720.52216,718.9000999999998,718.985,717.0707,716.4317,610.271240234375,607.1272583007812,603.9228515625,603.0442504882812,600.9879760742188,600.6080322265625,599.8009643554688,599.9077758789062,600.3848876953125,600.4447021484375,600.8489379882812,601.68017578125,603.3526000976562,604.2273559570312,609.1692504882812,707.3187,707.202,705.57465,704.8282,705.24725,703.7914,703.1142,702.60565,701.53094,701.41235,700.294,700.42456,700.34375,699.738,699.0082,698.12787,698.059,698.055,697.0514000000001,697.8634,696.0713,695.9274,695.9977000000001,695.62006,697.0237,695.3037,695.47363,695.14813,695.38763,695.1608,694.50476,694.1547,694.3336,693.9621999999999,694.51855,694.2537,692.9053,693.3072500000001,693.3604,693.2469000000001,692.78955,693.4102,693.7548000000002,692.9778,693.1549,693.38763,693.09845
753.6190999999999,752.4510499999999,751.6783,749.4699,748.58704,746.3581999999999,745.18463,633.9218139648438,627.5696411132812,624.0404052734375,623.1278686523438,620.6016235351562,617.0494995117188,615.8411254882812,615.7592163085938,616.1934204101562,614.3543701171875,613.419677734375,612.9708251953125,612.9761352539062,610.6350708007812,610.2963256835938,611.322021484375,611.2783813476562,608.452880859375,611.0305786132812,607.2321166992188,608.6475219726562,609.2437744140625,610.0933227539062,610.18798828125,613.4633178710938,609.8687744140625,610.0933227539062,719.4051,718.3320000000001,717.5158999999999,715.53296,610.9566650390625,607.8745727539062,604.57958984375,602.6268310546875,601.4047241210938,600.3527221679688,600.330078125,599.6473999023438,599.8387451171875,599.729736328125,599.5106201171875,600.8682250976562,602.3660888671875,604.0289306640625,608.2081298828125,707.2092,706.4507000000001,705.2781400000001,704.92236,704.317,703.1669999999999,702.7603,702.3077,701.41364,700.39575,700.367,699.8106,698.8425,698.7451999999998,699.1103,698.3925999999999,698.153,698.31586,696.796,696.68536,695.92664,695.92944,695.67316,696.06104,696.0934399999999,695.4798600000001,694.81274,694.51105,694.76324,694.1056000000001,693.4641999999999,694.4552,693.8472,694.1742,693.3522,693.2997,693.3442,693.0458999999998,692.9089999999999,692.8996,692.3332,692.4592,692.8103999999998,693.2556999999999,693.06116,693.0685,692.42633
752.5207,751.2396,750.6893,749.1014,748.161,746.9169999999999,630.401123046875,625.3724975585938,622.6597900390625,621.7180786132812,620.2532958984375,618.6060180664062,617.5936889648438,615.1968994140625,614.51611328125,614.1334228515625,613.1360473632812,611.7215576171875,611.086669921875,610.87646484375,609.9172973632812,608.7655029296875,607.1952514648438,609.8690795898438,608.5584716796875,607.4256591796875,607.0311279296875,605.6915893554688,606.9940185546875,607.2315063476562,607.814697265625,607.916259765625,611.4742431640625,610.7427368164062,607.9483642578125,717.5511,716.5282,608.4442749023438,611.306640625,608.185791015625,604.9605102539062,602.9300537109375,601.0078735351562,600.6249389648438,598.9360961914062,599.3510131835938,599.5620727539062,599.2974853515625,599.4556274414062,600.7849731445312,601.6994018554688,603.460205078125,607.41748046875,706.48975,705.1592,704.55554,704.1939,703.53033,702.66974,702.4252,701.7619,700.537,701.16614,700.04407,699.5184,698.5519999999999,698.94995,697.8241,697.7110600000001,697.1317,697.34686,696.73773,696.2793,694.71234,695.24695,695.0167,695.2315,694.03,694.3489,694.9375599999998,695.1415,693.8607,693.8068,693.8951399999999,693.5746,693.0055500000001,692.7369,692.4689,692.8364,693.2012,692.4954,692.3232,692.25256,692.7383,692.8666,692.6684,692.7398700000001,692.7962,691.93317,691.90344
752.4036,750.69653,749.6324500000001,748.6356,747.5055499999999,629.043701171875,624.1123046875,621.6064453125,620.360595703125,619.0977172851562,617.8060913085938,616.802001953125,615.0074462890625,614.2488403320312,612.5987548828125,612.1239624023438,610.8103637695312,610.0287475585938,609.4453735351562,610.0315551757812,609.2225341796875,610.2628784179688,607.3736572265625,608.5912475585938,607.3250122070312,606.0330810546875,606.457763671875,604.4058837890625,604.2825927734375,603.699462890625,603.6886596679688,605.6510009765625,607.207275390625,607.6737060546875,613.3766479492188,608.8052368164062,608.1039428710938,608.5997924804688,612.17626953125,608.7972412109375,605.5350341796875,602.4409790039062,601.5496215820312,599.9151000976562,598.4692993164062,599.1157836914062,598.0745239257812,599.7613525390625,598.2720947265625,600.2178344726562,600.1568603515625,602.0902099609375,605.5030517578125,704.9534,705.0472,703.9728,703.2975,703.85535,702.8578,701.63464,700.2497,701.35095,699.37866,699.12366,698.18066,698.77386,697.6817600000002,697.06305,696.3208,696.93164,696.3590999999999,695.59326,695.62134,695.7786999999998,694.5520999999999,694.2716,694.2031,694.422,693.7312,693.06635,694.4827,693.90906,692.4442999999999,693.4595,693.21466,692.2185,692.1558,692.6309000000001,692.36084,691.88214,691.71466,692.19165,691.6682000000001,691.3521000000001,691.6398300000001,691.9068,691.92444,691.7982,691.6967,691.4056
751.7239,749.9965,749.7395,747.9121,629.7149047851562,624.5257568359375,620.8224487304688,618.908447265625,617.2431640625,616.9086303710938,616.3275146484375,613.7192993164062,611.0912475585938,609.312255859375,608.46142578125,608.1893920898438,605.3916015625,606.1783447265625,607.2640991210938,608.52197265625,608.0244140625,606.3079223632812,607.0868530273438,605.2587280273438,604.2108764648438,604.158447265625,603.7308349609375,602.9107666015625,602.7687377929688,602.72607421875,603.1546020507812,603.7462768554688,604.6499633789062,605.2059326171875,608.0629272460938,614.259521484375,613.692138671875,611.237548828125,613.5882568359375,608.78466796875,605.1743774414062,602.6864624023438,601.5047607421875,599.7281494140625,598.981689453125,598.9395141601562,598.3615112304688,597.9763793945312,598.4598388671875,598.606201171875,600.5865478515625,602.1369018554688,605.760986328125,704.88763,703.9747,703.3409,702.2689,703.49176,701.89716,701.7469,700.78174,699.59503,699.1704,698.3527000000001,697.98596,697.9247399999999,696.51215,696.6561,695.98846,695.96606,695.6893,695.6915000000001,695.6161,694.7443,694.8667,693.99146,693.5951,694.0204,693.4677999999999,693.6303,693.19617,693.4646599999999,691.8667,692.75574,692.6209,691.3981,692.0361,691.7235,690.9289,692.0812,691.6481999999999,691.9502,691.3724,691.5823,691.177,691.7295,691.2564,691.6830400000001,691.71533,691.7550700000002
751.96387,750.2158,749.0899,627.8411865234375,623.4629516601562,620.8173217773438,617.3207397460938,615.0862426757812,613.5925903320312,613.4884643554688,612.5767822265625,609.642822265625,607.8748168945312,606.9113159179688,604.3580932617188,602.3394165039062,602.8816528320312,601.4400024414062,603.8931274414062,602.5538330078125,603.3897705078125,603.6104736328125,604.324462890625,604.1622924804688,602.3289794921875,603.764892578125,601.35400390625,603.1060791015625,603.5004272460938,600.0287475585938,600.0848388671875,602.953369140625,603.0023193359375,603.9893188476562,605.2627563476562,605.5888061523438,610.0913696289062,615.0228271484375,611.7686767578125,608.6725463867188,606.2723999023438,603.0068969726562,601.3521118164062,600.0614624023438,597.7534790039062,597.927978515625,598.1100463867188,597.1701049804688,597.5670166015625,598.5513305664062,599.6100463867188,601.296142578125,604.7752075195312,704.4006,703.7948,703.2905,702.5262,701.6395,701.7318,701.39905,700.2224,699.5954,698.7538,697.8213500000002,697.5705600000001,697.4109,697.3508000000002,695.8135,696.4773,694.61584,696.04034,695.30597,694.62555,694.3215,694.37994,693.4545,693.3803,692.85297,693.4256,692.16156,692.22485,692.5050999999999,692.47473,691.7442,691.4585,691.0521,691.9243,692.16425,691.21344,691.71704,691.3671999999999,691.0947,690.7869,690.97046,690.6392,691.22876,691.57263,690.9966,691.08014,690.5906400000001
751.2046,749.2663,748.71436,622.3887939453125,620.4443359375,617.9404296875,616.17578125,612.5447998046875,615.1979370117188,611.8272705078125,611.0157470703125,607.7094116210938,605.5161743164062,604.2474365234375,601.4163208007812,601.0152587890625,600.3651733398438,599.496826171875,598.6659545898438,599.0625,597.4797973632812,597.5478515625,598.49365234375,599.6310424804688,597.5567626953125,597.9612426757812,598.0095825195312,598.357177734375,598.5881958007812,599.0994262695312,596.8369750976562,600.2327270507812,600.5699462890625,603.2288208007812,604.0170288085938,604.9967651367188,605.3253173828125,608.0982666015625,610.53466796875,608.1554565429688,605.6220703125,603.5289306640625,601.0775756835938,599.5870361328125,598.5794677734375,597.8776245117188,596.873291015625,597.319580078125,597.6714477539062,598.1248168945312,599.308837890625,600.6064453125,604.3631591796875,704.3807400000001,703.2738,702.2758999999999,702.31116,701.7852,701.3677,700.01355,699.7972400000001,698.33374,698.27277,697.74536,697.60095,697.0561499999999,696.72504,696.7521999999999,694.7866,694.462,695.1337,693.7971,693.7586,693.99023,693.05225,692.873,694.364,692.6153999999999,692.7678000000001,692.7764,692.4617,692.28064,691.8746999999998,691.4315,690.8344999999999,691.1205,691.20325,690.798,690.624,690.6281,691.0328400000001,690.276,690.4740000000002,690.39075,691.0078999999998,690.3335,690.482,690.76996,689.9595999999999,690.8867
750.71497,749.3591000000001,624.1240234375,620.7274169921875,619.1465454101562,616.90625,614.5594482421875,613.0439453125,612.0281372070312,609.8916625976562,608.3480834960938,604.8161010742188,603.0610961914062,601.26123046875,600.2432250976562,598.81396484375,597.7577514648438,596.5576171875,594.6744384765625,594.7705078125,595.0000610351562,595.2308959960938,594.1132202148438,594.9395141601562,595.9437866210938,596.303466796875,596.3909301757812,595.7511596679688,594.4705810546875,596.3825073242188,594.7467041015625,595.0587768554688,597.1675415039062,598.2553100585938,602.4093017578125,603.5216064453125,602.6934204101562,603.6212158203125,606.6494140625,608.9254760742188,606.4290161132812,603.5370483398438,601.5656127929688,599.8927612304688,598.7009887695312,597.243896484375,597.097900390625,597.1803588867188,597.180908203125,596.8576049804688,598.9170532226562,600.0585327148438,603.2067260742188,609.967041015625,702.71844,702.6452,701.6211,701.4497,700.88837,700.2962,699.12256,698.47516,697.50696,697.3397,697.3194,695.7372399999999,696.1505,694.4048,695.04034,694.7664,694.71893,694.1616,693.53845,693.2938,692.867,692.27435,692.7488,692.49335,692.67426,691.99274,692.276,691.853,691.2631999999999,691.0249999999999,690.62286,691.2103,690.89154,690.748,690.4909,690.02966,690.3084,690.1639,690.57275,690.4787,690.2674,689.8876,690.32477,690.2356,690.1482999999998,690.0829999999999
749.5063,748.34406,621.02685546875,618.2639770507812,617.0375366210938,614.4256591796875,612.3125,610.655029296875,608.954833984375,607.2110595703125,603.0742797851562,602.6524047851562,601.5245971679688,600.1249389648438,599.0423583984375,596.9761962890625,596.4631958007812,594.9467163085938,594.1089477539062,593.3278198242188,592.8082275390625,592.713623046875,593.5407104492188,594.8513793945312,592.6795043945312,593.624267578125,593.9468383789062,592.82763671875,592.9384155273438,592.8495483398438,592.92724609375,594.4140625,596.9298706054688,593.980712890625,597.854248046875,600.5501708984375,599.8655395507812,599.6406860351562,602.1882934570312,605.6483154296875,608.440185546875,603.71240234375,600.8428344726562,599.2741088867188,597.299072265625,597.3074951171875,596.4357299804688,596.0744018554688,596.313232421875,596.9053955078125,598.4876098632812,599.484619140625,603.1168212890625,608.5087890625,702.0989,701.9341,702.10846,700.9783300000001,700.4971,699.8112000000001,699.2010500000001,698.3663,697.9805999999999,696.5202999999999,696.80273,696.53143,695.616,693.9369,694.223,694.2967999999998,694.5956,693.4715,693.4911,693.43616,692.63055,692.6829,692.2648000000002,692.0866,691.7229599999998,691.4556,691.1513,691.589,690.50244,690.2347399999999,690.34155,690.4922999999999,690.42865,690.28687,690.1071,689.8668,689.4773599999999,689.99786,690.272,689.55414,690.2518,689.68304,689.8019,689.9367,689.80664,689.93964
749.47705,747.6188,619.9420166015625,617.643798828125,615.4660034179688,611.379150390625,608.46142578125,607.1249389648438,606.1407470703125,603.1140747070312,601.7738647460938,601.2276611328125,599.7648315429688,598.0279541015625,597.1290893554688,595.621337890625,595.3645629882812,594.582763671875,593.6867065429688,592.7311401367188,593.1892700195312,591.2077026367188,591.448486328125,592.2152709960938,592.1222534179688,591.6371459960938,591.21142578125,590.8446044921875,591.0926513671875,591.6974487304688,592.8020629882812,592.0591430664062,592.4183349609375,595.1722412109375,595.7333984375,597.9539184570312,598.32080078125,599.7515258789062,600.5798950195312,604.0130615234375,605.58251953125,603.3157348632812,600.4586181640625,598.2118530273438,597.2943115234375,596.1663818359375,595.6918334960938,595.8646240234375,595.7893676757812,595.608154296875,597.2781982421875,598.9794311523438,602.0989990234375,607.6618041992188,701.3277,701.09674,701.19635,699.70703,700.01074,699.34735,698.161,697.3424,696.2851,695.49445,695.9322499999998,695.7964,695.0082399999999,694.57263,693.8612,693.5682399999998,694.0711999999999,693.3471,692.5685,692.9438,691.5747,691.8426,692.0273,691.77637,691.4083,690.6403,691.53314,690.9443,690.45233,690.5123000000001,690.4672,690.37537,690.06793,689.8883,689.82764,689.5745999999999,690.1467,689.1432499999999,689.1252,689.5226,689.4703,689.671,689.5124,689.38226,688.6462,689.4563600000001
748.6306,747.794,618.3780517578125,616.4561157226562,614.06689453125,610.5438842773438,606.8917236328125,605.375732421875,604.3142700195312,602.272216796875,600.7965698242188,600.0083618164062,598.6587524414062,597.7803955078125,596.4683837890625,595.4215087890625,594.8565063476562,594.3828735351562,592.2489624023438,593.1222534179688,593.4264526367188,592.5065307617188,590.84619140625,591.3203735351562,591.1715087890625,590.8605346679688,590.7883911132812,589.4419555664062,588.6969604492188,589.9163818359375,591.226318359375,591.7054443359375,590.6279296875,593.153076171875,593.2554931640625,597.9039306640625,596.8931884765625,599.6465454101562,601.9146728515625,602.5350952148438,604.1393432617188,601.9564208984375,598.35302734375,597.8236694335938,595.62841796875,595.825439453125,594.8089599609375,595.2572631835938,593.7958984375,596.0955810546875,596.687255859375,598.38623046875,601.2485961914062,604.724365234375,701.3376,701.0859,699.8792000000001,699.71045,699.6711400000002,699.0538000000001,698.0056,697.11633,695.50775,695.7763,695.94446,694.9609,694.99414,694.4632,693.50256,693.23596,693.3001,693.2588499999999,692.6009999999999,692.39886,691.5037,691.7485,691.43195,691.66675,691.22876,691.124,690.6019000000001,690.8601999999998,690.69684,690.4131,689.663,689.9788,690.0532,689.39484,689.48267,689.1506000000002,688.7937999999999,689.1042,689.50146,689.4165599999999,689.8116,689.2224999999999,689.25165,689.34546,689.5681,689.0169000000001
748.50995,747.34924,617.2311401367188,614.4911499023438,611.556396484375,609.00634765625,605.7869262695312,604.3643798828125,602.1724243164062,601.6593017578125,600.4036865234375,598.8549194335938,597.917236328125,595.8396606445312,595.0970458984375,595.747314453125,594.2021484375,594.0401611328125,592.4007568359375,589.421875,591.5902709960938,590.9794921875,589.3367309570312,589.6857299804688,590.4826049804688,590.283447265625,590.0155639648438,589.0950317382812,587.9529418945312,588.8519287109375,590.1807250976562,590.19287109375,590.4199829101562,591.5380859375,590.8988037109375,592.1785888671875,596.719970703125,599.7197875976562,601.5101318359375,599.1560668945312,603.1414184570312,600.9063110351562,598.4459228515625,596.6025390625,595.6642456054688,595.488525390625,594.7496948242188,594.627685546875,594.0503540039062,595.2911376953125,596.0098876953125,598.0015258789062,600.2430419921875,604.2261962890625,701.1972000000001,700.7816,700.3218000000002,699.1186500000001,699.06934,697.90204,697.32416,697.13995,696.0201,694.8201,695.1466,695.15375,694.2084,693.7586,693.12646,693.1343000000002,692.0951,691.8955700000001,692.2844,692.3294699999999,691.51306,690.7023300000001,691.7463,690.9571,690.4603,690.75214,690.3546,690.5286,690.6381,689.9625000000001,689.0048,689.46185,689.9667,689.2091,688.781,688.64233,688.7224000000001,688.47723,689.1517,688.4032,688.53186,688.65656,688.6830399999999,688.3277,688.9285,688.3841
747.91455,747.26984,615.759521484375,614.311767578125,610.3527221679688,608.749755859375,606.27099609375,603.5177612304688,602.3992309570312,601.0336303710938,599.75927734375,597.9181518554688,597.2196655273438,595.8451538085938,594.7879638671875,594.6082153320312,593.5739135742188,591.8125,592.0299072265625,590.499267578125,590.3019409179688,588.7982788085938,588.2588500976562,589.4602661132812,589.4232788085938,589.8125,589.869140625,589.2265625,588.3380126953125,587.9290161132812,590.1787719726562,590.2769775390625,589.7101440429688,590.096435546875,590.458984375,590.3795776367188,593.0867919921875,593.798828125,599.5241088867188,597.6240234375,601.5045776367188,598.8984375,597.3297729492188,596.763427734375,595.085205078125,594.6566162109375,593.951416015625,593.5253295898438,594.31640625,593.9220581054688,595.9852905273438,596.8845825195312,599.7703857421875,602.9956665039062,700.49756,699.91046,699.9697000000001,699.20654,697.6631499999999,698.2088999999999,696.43976,695.6588999999999,694.6736,695.5088,694.67267,694.1546600000001,693.82166,693.7764,693.28973,692.5071,692.8413,691.82855,691.938,691.4590499999999,691.1469,691.26306,691.00195,690.8230000000001,690.44934,689.86743,690.3773,690.31134,690.3963999999999,689.5995,688.9436,688.2808,688.91785,689.2602999999999,688.52075,688.8556,688.15466,688.7735,688.7102,689.1011000000001,688.0881999999999,687.7645,688.1997,688.3869,688.2554300000002,687.38
747.967,746.0699,613.5081787109375,612.8968505859375,610.07958984375,608.3668212890625,605.2606811523438,602.1428833007812,601.048095703125,600.4385375976562,599.1339721679688,598.1697387695312,596.5882568359375,595.6053466796875,592.8897094726562,591.7018432617188,589.9345092773438,591.1603393554688,590.1897583007812,588.5155029296875,588.3861694335938,587.0220336914062,588.3031616210938,585.2274169921875,587.577392578125,586.47119140625,587.9359741210938,587.7894897460938,588.88818359375,588.7655029296875,589.5365600585938,589.6925659179688,588.9415893554688,590.0752563476562,589.0493774414062,590.3314819335938,590.2901000976562,593.3325805664062,597.8094482421875,600.06982421875,600.1405029296875,598.2388305664062,595.403076171875,595.376220703125,594.0586547851562,593.6436157226562,593.6190795898438,593.4944458007812,592.89404296875,594.0150756835938,595.6476440429688,597.3258056640625,599.4920043945312,602.9497680664062,700.64075,699.6632,699.8679,698.86865,698.28644,697.5935,697.2618,696.5223000000001,694.96484,694.2963,694.7715,693.8659,693.72534,693.2231,692.8153,691.9836399999999,692.26666,692.35455,690.98413,691.7470000000001,691.2946999999999,690.90643,690.4624,689.6781,690.89056,690.08624,690.1874399999999,689.9670000000001,689.4777999999999,688.3492,689.01917,688.8563999999999,688.1338,688.9903000000002,688.1225,688.6746,687.8963,687.325,687.9283,687.505,688.6816999999999,687.1931,688.0162,687.7993000000001,687.4336,687.9942600000002
747.06836,745.8176000000001,744.7819,613.67578125,611.3020629882812,607.8495483398438,605.596435546875,602.8923950195312,601.4013671875,601.02392578125,597.8074951171875,597.4801025390625,596.3585205078125,594.2786254882812,593.248779296875,591.972412109375,589.5238037109375,589.1383666992188,589.142333984375,587.8502197265625,587.3350830078125,586.4249267578125,586.523193359375,586.0841674804688,587.7900390625,586.3488159179688,587.2219848632812,586.6024169921875,588.819091796875,588.9016723632812,588.6834106445312,588.1697998046875,588.5218505859375,590.0671997070312,590.1686401367188,590.3340454101562,591.7171020507812,593.68896484375,596.7840576171875,599.5955200195312,598.9362182617188,598.1641845703125,595.1923217773438,594.2269897460938,593.3877563476562,592.9015502929688,592.4755249023438,593.0133056640625,592.5761108398438,593.0093383789062,595.50537109375,595.9208984375,599.043701171875,602.2952880859375,700.478,699.35065,699.07086,697.8595,697.265,697.14636,695.9774,694.184,694.21954,694.049,694.0495599999999,693.2699,693.0186000000001,693.1071,692.4836,691.7658,691.78156,691.825,691.1455,690.9659,690.58545,690.5118,690.5952,690.58264,689.4799,689.7003,689.5693,689.7341,688.4335999999998,688.19904,687.457,687.99536,687.85596,688.55597,688.4095,687.92816,687.5323000000001,687.0869,687.62195,688.0019500000001,686.77814,687.15454,687.01843,687.2184400000001,687.44183,686.9462999999998
747.3856,745.0245,744.8086,614.4298095703125,613.0966186523438,610.0598754882812,606.3492431640625,603.7022094726562,601.5324096679688,600.490966796875,599.17236328125,597.6870727539062,596.31298828125,593.3303833007812,592.1434326171875,591.8345947265625,589.7477416992188,589.4324951171875,588.7295532226562,588.3911743164062,587.1552124023438,586.5551147460938,586.2656860351562,585.5912475585938,585.572509765625,585.9344482421875,586.5433959960938,587.6239013671875,588.1260986328125,588.855712890625,588.8753051757812,589.1691284179688,588.8057250976562,588.5618896484375,589.3970336914062,590.369873046875,591.9197998046875,594.0689086914062,597.1090087890625,599.435302734375,599.5714721679688,597.1492919921875,595.3316650390625,593.7824096679688,592.951904296875,591.8878173828125,591.8956298828125,591.2324829101562,592.2723999023438,592.5933837890625,593.9154052734375,595.5656127929688,597.8819580078125,601.0662231445312,699.4668,698.94086,698.67365,698.54553,697.2168,696.6144399999998,696.70905,694.6930499999999,694.6373,693.51917,693.9695,692.9208,692.8196,692.6129000000001,692.05237,692.3985,691.40515,690.9925,690.5643,690.9362999999998,690.57294,690.5448,690.53973,690.39526,688.9358,688.505,689.7447999999999,689.0693999999999,689.1711,687.61273,688.1893,687.5772,688.0271,687.9577,687.2044,686.82855,687.3972000000001,687.7486,686.67053,687.3313,686.90375,686.7574,686.7485999999999,687.21405,686.2421,686.9411
747.67535,745.1521,744.1686400000001,744.0034,614.3477172851562,610.0271606445312,607.4700317382812,604.8347778320312,602.7152099609375,600.4560546875,599.3402099609375,597.5341796875,595.9824829101562,592.6199340820312,590.1767578125,592.1865234375,589.1998291015625,588.5833740234375,588.0703125,588.0347290039062,586.651611328125,586.3086547851562,585.7824096679688,586.88134765625,584.9967041015625,586.205810546875,586.1472778320312,588.1033325195312,588.91748046875,588.6351318359375,588.9241333007812,588.2073364257812,589.440185546875,589.205322265625,589.3179931640625,591.077880859375,593.7831420898438,596.0955810546875,597.1052856445312,597.7720336914062,598.034912109375,596.7576293945312,593.1495971679688,593.9933471679688,592.2041625976562,591.5079956054688,591.73583984375,591.4197998046875,591.2036743164062,591.8821411132812,593.6414794921875,594.583251953125,597.7185668945312,600.6267700195312,699.1936599999999,699.21375,698.2517,698.5671,696.61835,696.4309000000001,695.0236,695.13245,693.9349400000001,693.65875,693.3549,692.6304,692.598,692.1184700000001,691.7138,691.4865,691.1892,690.78345,690.3917,689.978,690.9519,690.3693,690.0428,689.801,689.2174,687.65924,689.3728,688.6087,688.1605,687.7837999999999,687.70215,686.89075,687.4001499999999,687.13666,687.525,686.7314,686.2864,686.8056,686.19543,686.9772,686.5451,686.0851,686.54144,685.7799,686.45483,686.4859
746.40485,745.17175,743.70593,742.6158399999999,741.0433,611.1567993164062,608.4215087890625,604.4949340820312,602.2127685546875,600.5087890625,599.1117553710938,597.5982055664062,596.0947875976562,594.22314453125,592.6885375976562,590.7562866210938,589.946533203125,589.447509765625,587.994140625,587.3295288085938,587.108642578125,586.3364868164062,586.0953369140625,585.490234375,586.0990600585938,586.8487548828125,586.9304809570312,587.0983276367188,587.8775024414062,589.5921630859375,588.1170043945312,588.7252197265625,588.7127685546875,589.532470703125,590.813720703125,591.4238891601562,594.009521484375,596.3860473632812,599.98388671875,600.2678833007812,597.9602661132812,595.4038696289062,593.644287109375,592.0636596679688,590.5673217773438,590.908447265625,591.0665893554688,590.9743041992188,590.968017578125,591.049560546875,592.7828369140625,593.67529296875,597.1035766601562,600.4732666015625,698.5771,697.5317,697.8680399999998,697.1533999999999,696.7355299999999,695.4436599999999,694.7881,694.0601000000001,693.6062,693.5721,692.6705,692.8969,692.1134,692.1686,691.18494,691.3722,690.89496,690.5843,690.2648999999999,690.1317,689.7672,689.35986,690.2999,689.1303,688.7158999999999,688.1197499999998,688.42505,687.95483,687.7126,687.9076,686.834,687.7805,687.0808999999999,687.0281,686.7569000000001,685.7879,685.61865,686.8839,686.4192,686.59357,686.1521600000001,686.6766,686.8478400000001,686.4779999999998,686.07007,686.04736
746.60034,744.6259,743.1675,742.7048,742.0884,739.44684,611.17041015625,604.4193115234375,602.71533203125,600.4205932617188,599.5213012695312,597.7402954101562,595.4984741210938,594.03564453125,593.263916015625,591.9010620117188,591.268798828125,590.115478515625,588.8138427734375,587.6007690429688,586.7394409179688,585.6392822265625,586.0330200195312,586.3767700195312,586.2993774414062,586.8231811523438,586.1607055664062,586.775146484375,587.5579223632812,588.8958740234375,588.1793823242188,589.8663330078125,589.9915771484375,590.5176391601562,591.0947875976562,592.6648559570312,594.9773559570312,596.5220336914062,600.3030395507812,599.9570922851562,596.226806640625,594.701904296875,592.958251953125,592.5530395507812,590.41796875,590.50048828125,590.1591796875,590.6961059570312,590.5556030273438,590.1754760742188,592.0811157226562,592.9940185546875,596.2718505859375,600.0226440429688,698.48114,698.3673999999999,697.27167,696.7766,696.28973,695.8601699999999,693.86365,693.93884,693.3887,693.0827999999999,693.1522,692.71954,692.1661,691.58417,691.2021,691.1061,690.4566,690.41766,689.8814,689.5167000000001,688.89594,688.8034700000001,690.043,688.6917,688.9607,688.06134,688.4898,687.9783,687.8417,687.2554,686.36115,686.0992999999999,685.95215,686.425,685.98505,685.2764,686.11237,685.81024,685.7032000000002,686.0211000000002,686.4137600000001,685.82874,685.6728499999999,685.885,686.0971,685.1594
745.9154,744.79285,743.0805699999999,742.8731,741.9335,739.42145,738.4959000000001,604.8320922851562,602.59619140625,600.9049682617188,599.8253173828125,597.6907348632812,596.0852661132812,594.5186157226562,593.1715698242188,592.2431030273438,591.9368896484375,589.87353515625,590.1119995117188,587.9815673828125,586.6202392578125,586.2158203125,586.1649169921875,585.3463134765625,585.6300048828125,583.924560546875,586.279541015625,587.7955322265625,587.501708984375,589.5637817382812,589.8950805664062,590.5053100585938,591.1123657226562,591.706298828125,592.1708984375,594.4105224609375,594.9227294921875,599.3525390625,598.808837890625,598.6381225585938,595.564208984375,593.6652221679688,591.695556640625,590.7095947265625,588.525390625,589.4352416992188,589.7211303710938,589.8585205078125,589.007080078125,589.57421875,590.8497924804688,592.4173583984375,595.7703247070312,599.1270141601562,697.7057,696.86664,697.0254,696.57355,696.29596,695.9676,693.4488999999999,694.28516,692.1894499999999,692.6017,692.3423,691.4215,691.2763,691.14374,691.17444,690.8726,690.3685,690.5042000000001,690.49854,689.4858999999999,689.5536,688.5654999999999,688.76215,688.6179,687.82513,688.1877399999998,688.6935,687.5942,686.58655,686.64905,686.133,686.1490000000001,686.8017,685.87213,686.4002,686.0893999999998,684.8769,685.7592,685.7484,685.60114,685.9193,685.8781999999999,685.33997,685.33203,685.14777,685.14417
745.59906,743.76776,742.6884,741.8704,741.0472400000001,738.6872600000002,737.5602000000001,737.0631000000001,603.6840209960938,601.2754516601562,599.6240234375,598.334716796875,596.2389526367188,595.3131103515625,594.0738525390625,593.9194946289062,592.2896728515625,590.3507690429688,590.179443359375,588.458740234375,587.776123046875,586.141845703125,585.7794799804688,586.8472290039062,586.8720703125,586.4175415039062,587.5440673828125,589.0313720703125,588.7518310546875,590.5935668945312,590.6673583984375,591.7091064453125,592.2142944335938,592.5675048828125,594.8289794921875,593.423583984375,709.4726,708.9826700000001,598.2481689453125,598.555419921875,594.2496948242188,592.3062133789062,591.4263916015625,589.9266967773438,589.038330078125,588.2169799804688,589.0287475585938,588.47998046875,589.052978515625,589.5850219726562,590.249755859375,591.49755859375,593.5100708007812,598.2647094726562,697.4837,696.6228,696.3226299999999,696.2709,694.9298999999999,694.0549999999998,694.2929000000001,693.4006999999999,692.9927,691.9827,692.3939,691.4875,691.03876,690.88086,690.8896500000001,690.4643599999999,690.3204,689.6056,689.4334000000001,688.8778,688.6322,688.10474,688.3247,688.0451,687.9204,686.6519,686.3921500000001,687.2758,686.95966,686.1316,686.4430500000001,685.78125,686.1704,686.177,685.7402,685.64624,685.6369,685.55457,684.7330999999999,685.2585999999999,684.8568,684.9778000000001,685.4998,685.0565,684.84143,685.2324
745.20215,743.9022,742.99786,741.06287,740.4967999999999,739.4786999999999,737.8974600000001,736.5377,735.4838,734.74176,600.6719970703125,598.8126831054688,597.7405395507812,598.2405395507812,596.8677368164062,595.225830078125,594.1184692382812,592.5299682617188,590.5560913085938,589.8728637695312,588.12890625,587.6723022460938,587.6331176757812,585.7184448242188,587.216796875,587.634765625,588.7908935546875,590.3101806640625,590.98974609375,592.2230834960938,592.4996948242188,592.0336303710938,593.3065795898438,594.2789916992188,711.9480999999998,710.6218,709.61633,708.45306,707.9256,596.6023559570312,594.375,591.644287109375,590.34375,588.6724853515625,587.6967163085938,587.79931640625,587.8226318359375,588.3956909179688,588.069091796875,588.861572265625,589.7420654296875,592.117919921875,594.9112548828125,597.9248657226562,698.4587,697.2826499999999,695.9856,695.8639,694.7935,694.34265,693.2592999999999,693.40515,692.58594,692.4187,691.328,691.08484,691.2592,690.6476,689.955,690.5906,689.9411,689.3998999999999,689.0569500000001,688.0692,688.4719,687.59076,688.22327,688.0044,687.31323,687.52606,687.6171,687.1067500000001,686.6853000000001,685.6497,686.3436,685.4197,685.76843,685.9962,685.5904,685.106,685.7523000000001,684.6432500000001,685.5015000000001,685.6938,684.52783,685.49976,684.9,684.99524,684.72485,684.9547
745.1488,743.6079,742.2067,741.1383,740.1431,738.5345,737.4265,736.5358000000001,735.24634,734.7663,733.66797,732.3363,731.0663999999999,593.3248901367188,600.1397094726562,598.8308715820312,595.9359741210938,594.036865234375,593.0728149414062,590.6591186523438,588.584228515625,588.079345703125,587.9443359375,588.0037231445312,587.933837890625,589.0344848632812,590.5387573242188,592.0678100585938,593.0801391601562,595.099609375,596.1388549804688,596.94384765625,712.8954999999999,711.48334,711.39777,710.47003,708.9455,707.9309,707.2163,595.6892700195312,593.9532470703125,591.4708251953125,589.2302856445312,588.609619140625,587.6843872070312,586.8383178710938,587.201416015625,587.4752807617188,588.1780395507812,588.9754028320312,589.7777099609375,590.6897583007812,593.9387817382812,597.3820190429688,600.3945922851562,696.9319,696.1659499999998,695.749,694.4780000000001,693.6482,693.6605,693.16785,692.8851,691.73517,691.3777500000001,691.14197,690.7554300000002,690.5189,690.20856,689.5534,688.864,688.96686,688.2273,688.6195,687.5840500000002,687.3100999999999,687.9664,688.088,687.0700999999999,686.8008,687.7607,686.7060000000001,686.4707,685.86005,685.5463,685.08685,685.73444,685.7048,685.3130999999998,684.8347,684.7731999999999,684.90674,685.34424,684.80005,684.7825,685.24536,684.4739400000001,685.3025,684.1912,684.3633
744.6574,742.76215,742.09406,740.76764,739.6623999999999,738.596,737.3957,735.5463,735.23596,734.3063,733.1924000000001,731.8668,730.2795000000001,728.754,729.4653,592.9520263671875,596.580078125,596.8392333984375,595.6801147460938,593.9918212890625,590.6317749023438,589.226806640625,589.8287353515625,589.149169921875,590.5850219726562,591.7405395507812,594.1514892578125,594.6085815429688,595.9771118164062,713.8379,713.84357,713.2262000000001,712.5527,711.4493,710.6264999999999,709.7256,709.2349,707.46826,706.9912999999999,595.1939697265625,592.7825317382812,589.4779052734375,588.9031372070312,587.6539306640625,587.4135131835938,587.5198974609375,586.917724609375,587.0553588867188,587.4273071289062,587.58056640625,588.911865234375,590.775146484375,593.8903198242188,597.3602294921875,599.9950561523438,696.7699600000001,695.6636000000001,695.021,694.7565299999999,693.84375,693.4368,692.0493999999999,692.61914,691.749,691.11273,690.8693,691.07385,690.7903,689.5998,689.66626,689.4999,688.30334,688.44885,687.3371,687.8877,687.20154,688.0124,687.2283300000001,686.4102,686.5663,687.15326,686.34814,684.9184,685.3506500000001,685.3669,684.79443,685.0440000000001,685.0570700000001,685.38916,683.7951699999999,684.7709399999999,685.1233,685.2394000000002,684.7493,684.11554,684.01294,685.125,684.8566,684.59796,684.9933
744.1790000000001,743.3464000000001,741.0521,740.39905,739.15216,738.7937999999999,737.24115,735.23083,734.84595,733.9383,732.75574,731.68744,729.86847,729.7754,727.73706,727.78796,589.5738525390625,594.4154663085938,590.0184326171875,587.8634033203125,589.5431518554688,589.1657104492188,589.8987426757812,590.3363647460938,591.3524780273438,591.4318237304688,591.2384033203125,596.1024169921875,715.1705,714.31573,713.5893599999999,712.69867,712.1176,711.7796599999999,710.55994,709.7113,708.12,708.0856,707.3638,594.53564453125,592.2488403320312,589.7034301757812,588.18115234375,586.5796508789062,585.0634765625,586.6317138671875,587.0053100585938,586.3019409179688,586.4511108398438,587.3449096679688,589.2376708984375,590.6412353515625,593.5894165039062,597.1403198242188,696.0778,695.4495,695.26117,694.38806,694.2622,693.6438,693.5665,692.2012,691.4609,691.5412000000001,691.0212,691.479,690.48254,689.59436,689.2626,689.0322000000001,688.6357399999999,688.0479,688.1786999999999,688.1576,687.32526,687.2482,686.9261,687.2256,686.1163,686.05005,686.0752,686.0735,685.20087,684.6878000000002,684.48224,684.5083999999999,684.681,684.8097,684.7604,684.1943000000001,684.047,684.131,683.9364,684.14484,683.54535,683.8814,684.3481399999998,684.40247,683.20184,683.0315
744.1684599999999,743.12085,740.8564,740.82666,739.4633,737.03235,736.0209399999999,735.6541,735.0034,734.3208,732.4026000000001,731.81683,730.6129,729.5104000000001,728.3618,727.21893,726.4517,595.69677734375,591.8080444335938,588.9138793945312,589.218994140625,589.235595703125,587.779052734375,589.5166625976562,589.9900512695312,590.8179931640625,592.1378784179688,597.0648193359375,714.6635000000001,714.13916,713.4932000000001,712.2992999999999,711.88165,710.98444,710.0056,708.8678,707.7767,707.7939000000001,706.624,593.8745727539062,591.960205078125,589.2669677734375,588.1270751953125,587.328369140625,585.330810546875,584.8289794921875,585.6013793945312,586.3851318359375,584.7438354492188,586.97900390625,587.5949096679688,590.0006713867188,593.1607055664062,596.4096069335938,599.15380859375,695.62744,694.738,694.797,694.1825,693.22186,692.7234,691.95105,691.4332,691.13965,690.6266500000002,690.93835,689.6717,689.89526,688.5804,687.9945699999998,688.9191,688.0111999999999,688.45056,687.57513,687.7117,687.29156,687.4914,686.5395,685.5312000000001,685.9459000000002,685.79364,685.95337,685.31244,684.2417,684.9938,684.44617,684.3971999999999,684.4300499999999,684.8123,684.7179,683.9466,683.1867,683.3484,683.85187,684.2118500000001,683.0746999999999,683.777,683.2246,683.9930400000001,683.6758399999999
743.84265,741.6788299999998,741.41644,740.4771,738.5667,737.02106,735.756,735.19055,734.5365000000002,733.1005,733.03595,731.4977,729.80035,729.3800699999999,728.39246,727.2718,726.60944,725.17236,592.5234375,589.9384765625,588.5451049804688,588.0753784179688,588.357177734375,588.9070434570312,590.3037109375,591.667236328125,593.3910522460938,714.964,715.0462600000001,713.8766499999999,713.6668,712.1973,711.9577000000002,710.7835,709.98535,708.0059,708.5927000000001,706.8671,706.4509,593.1549072265625,591.834228515625,588.8336181640625,587.8023071289062,586.3916015625,585.63720703125,586.305908203125,586.1964111328125,584.6793823242188,586.2723999023438,586.4705200195312,586.5684814453125,588.5777587890625,592.4829711914062,596.2462158203125,598.398193359375,696.085,694.16223,694.7507,693.3531500000001,693.093,692.1835999999998,691.6087,691.37134,690.90125,690.1768,690.5080599999999,689.9996,688.8072,689.2849,689.3899999999999,688.6003,688.2528,688.09186,687.98816,686.7143599999999,686.67975,686.8486,686.3619,686.40845,685.5099,685.3,685.4645400000002,684.3162,684.4651999999999,684.9644,684.1257,684.8232,684.03406,684.20233,684.7109,684.0812,683.3717,683.80035,684.2491,683.5305,683.87585,683.5742,683.5025,683.3385599999999,683.4252000000001
743.7613,742.8798,741.3919699999999,739.66315,739.0862400000001,737.16547,736.37555,735.85815,734.3446,733.85693,731.8764999999999,731.6612,729.9042399999998,728.0406,728.52997,727.0823,725.4391499999999,724.55585,592.435546875,590.0790405273438,588.8748168945312,588.1600952148438,588.0213012695312,588.6998901367188,589.4507446289062,590.3071899414062,593.2647094726562,715.3155000000002,714.10913,713.7055,712.916,711.7308,711.3232,710.4491,709.9897,708.2050000000002,707.6959,707.1781599999999,706.19305,592.8206787109375,591.7503662109375,588.8076171875,586.5809936523438,586.33203125,585.63818359375,586.007568359375,585.3721923828125,585.5901489257812,586.3775634765625,585.646240234375,585.7623901367188,587.2946166992188,590.7249755859375,595.0775146484375,598.3536987304688,695.67596,694.1792,694.28156,693.5497,692.67944,692.8129,691.71,691.2532,690.2027599999999,690.5547,689.9179000000001,689.6478,688.8766,688.6972000000001,688.91626,688.5089,687.9667,686.3855,686.9072,686.0401,686.53864,686.8272,686.4383499999999,685.5889,685.63983,685.2160000000001,685.6365,685.1231,684.78357,684.2929000000001,683.3731,684.00885,684.2699,683.4739,683.19006,683.5953,683.5562,683.8919,684.3129,684.0515,683.1366,683.72485,682.84644,683.0409499999998,683.3787
743.59863,741.5213,741.16736,738.7573,738.2248,737.71436,735.97504,735.13367,734.0989,733.3592999999998,732.34186,730.4255,729.2307,728.9758,727.9077,726.61975,725.3781000000001,724.7503,592.4415283203125,589.5196533203125,588.4745483398438,587.6430053710938,588.1594848632812,588.94775390625,589.0771484375,590.5734252929688,593.0198974609375,598.7891235351562,714.36127,713.3634,712.1202,711.5628000000002,711.7763,710.48627,709.3156999999999,707.7669000000001,707.8217,706.39734,706.4842,592.3017578125,591.2305297851562,588.5654296875,586.5975341796875,584.927978515625,584.3165283203125,585.1109619140625,585.48876953125,584.68505859375,585.4248657226562,585.1627197265625,585.289306640625,586.5780639648438,589.6243896484375,594.53076171875,599.4058227539062,694.69165,694.28424,693.4352,694.1006500000001,692.2859,691.7717,691.3709,690.9832,690.39716,690.3412000000001,690.1944000000001,689.3419,689.0745,687.34204,687.52814,687.93805,686.6137000000001,687.2207000000001,687.1139500000002,686.13916,685.4249,686.3088,685.0922,685.5184299999999,685.6675,684.8040000000001,684.67346,684.1657,684.8686499999999,684.0258,683.5919,683.8027999999999,683.3678599999998,683.5369000000001,682.7503,683.3873,682.7738,682.931,683.60986,683.5794699999999,683.784,683.12317,683.62866,682.7707499999999,682.0088499999999
742.2454,741.50574,740.1491999999998,739.42334,738.4144000000001,737.08185,735.5019,734.7411,733.6593600000001,733.3381299999999,732.7270999999998,730.74695,730.36975,728.6734,728.01825,725.86615,725.6867,724.78046,592.1100463867188,589.9600830078125,587.6912841796875,587.759765625,587.8436279296875,588.8699340820312,588.87255859375,589.693603515625,592.3677368164062,598.4803466796875,713.75134,713.05786,711.96936,711.98193,710.9118,710.2199,709.6823,707.50366,707.1142,705.827,706.0569,592.1063842773438,590.599609375,589.0383911132812,587.0128784179688,584.2742309570312,583.5206298828125,584.240234375,585.1812744140625,584.240966796875,585.3888549804688,585.2282104492188,585.1361083984375,585.8779296875,588.4788818359375,592.9600219726562,597.818603515625,694.413,694.29895,693.9182,693.44794,692.54095,692.2655,691.63586,690.9352,690.28937,689.77765,689.9851,689.6938,689.09265,687.6441,688.19324,687.1173999999999,687.07184,686.2477,685.88416,686.218,686.1133,685.8952999999999,684.73846,684.7955,685.6674,685.7413299999998,684.60895,684.22876,683.2064,683.4169299999999,683.4913,683.61993,683.8808,683.5398599999999,682.43286,682.36993,682.7533600000002,683.1514,683.6553000000001,683.5532,682.8426,683.5643,682.95245,681.8884,682.65454
742.27783,741.69183,740.2851599999999,739.2321,737.8552,737.0563,736.3784,734.6793,734.4187,733.51685,732.12006,730.54175,728.2648,727.77277,727.8213500000002,726.6283599999999,725.7835,725.24854,592.1795654296875,590.0040893554688,589.122802734375,588.111328125,588.0741577148438,588.0316772460938,588.8609008789062,590.3297729492188,592.9588012695312,597.6437377929688,714.16986,713.3859,711.4279999999999,711.0708,710.97046,710.04694,708.908,708.08356,706.5137300000001,705.9663,705.2158,592.11962890625,591.830810546875,587.5374755859375,586.6989135742188,584.0482788085938,583.3533935546875,583.05224609375,583.7666015625,585.680908203125,584.8095092773438,585.2318115234375,583.9689331054688,585.1688842773438,588.6672973632812,592.8477783203125,596.1064453125,694.8059,693.7923,694.27594,692.84894,692.1788000000001,691.7931999999998,691.3329999999999,690.20807,689.5515,689.8449,688.8597,688.5553,687.4953,687.05853,687.7103999999999,687.296,686.46594,686.3171,685.78577,686.1054,685.95795,685.6511,684.78906,684.58057,684.5808,685.1458,684.67914,684.2253,683.6807999999999,683.52997,683.4625,683.186,683.3553,683.87195,682.8956,682.9303600000001,682.6896999999999,682.961,683.16113,682.4241,683.49646,682.9736,682.4619,683.44476,682.9518
742.9341,741.13715,740.2098,739.4903,738.12646,737.3722499999999,735.5631,735.14594,733.80756,733.11774,731.5027499999999,730.06836,728.91754,728.6123,727.17725,726.41516,725.2536599999999,724.1042,592.7614135742188,590.86962890625,588.3328247070312,588.2274780273438,587.5228271484375,588.8085327148438,589.053955078125,590.1959228515625,592.7205200195312,598.6557006835938,713.7482,712.4127999999998,711.4369,710.9187,710.9207000000001,709.2584,708.5734,708.22363,708.0306,705.9355,705.66907,592.171875,590.4721069335938,588.5546264648438,586.354736328125,584.6412353515625,583.7161254882812,583.9850463867188,583.326904296875,584.0259399414062,585.1133422851562,585.6046142578125,585.1112670898438,584.817626953125,589.6228637695312,592.2857055664062,597.4228515625,695.1448,694.2175,693.5602,692.5741600000001,692.3539,691.63324,691.80786,690.4168,690.2218,689.5919000000001,689.47253,688.85223,687.8298,687.7979,687.2434699999999,687.8529000000001,687.1862999999998,686.5917,685.87213,685.4836,685.0904,685.4907000000001,685.58765,683.7907,684.84595,684.6294,683.9695,683.9364,683.0796,682.26953,683.5682399999998,683.31616,682.4241,682.8501,682.87775,682.3396,682.7633000000001,682.6871,683.3241599999999,681.279,682.0915,682.71326,681.5855999999999,682.6485,682.7053
742.0123,740.5116,739.7107,738.44025,737.3483,736.3998000000001,735.9493399999999,734.37213,733.5220000000002,732.5022,730.9956,730.39453,729.4460000000001,727.48114,726.9944499999999,725.6852000000001,725.3665,724.3124,592.5991821289062,589.9835205078125,588.7535400390625,588.9928588867188,587.5878295898438,589.6287841796875,589.96240234375,588.911865234375,593.0792846679688,599.5391845703125,713.455,712.9248,710.9189000000001,711.06934,711.3599,709.4867999999999,708.5042,707.48987,706.6915,706.0978,705.10315,592.0865478515625,591.2887573242188,587.267333984375,586.31298828125,585.269775390625,583.16357421875,583.6057739257812,584.0005493164062,584.2598876953125,583.4913330078125,584.5982055664062,585.1333618164062,586.5807495117188,588.5827026367188,591.9932250976562,595.6349487304688,693.9645,693.1021,692.95,692.732,692.0709,691.4243,690.80554,689.99207,689.9075,688.8034,689.2399,687.8211699999999,688.1038,687.6736,687.4185,686.33636,686.8638,686.1069,685.82635,685.39813,684.7067,685.0077999999999,684.4049,684.55566,684.3476599999999,684.26556,683.8732,684.2003,683.16156,682.77765,682.37354,683.34705,683.2535,682.1874,682.65674,681.56384,682.428,682.58167,682.35547,683.3287,682.86316,681.9061999999999,682.24335,681.3807399999998,681.96173
742.2209,740.1232,739.5109,738.0706,737.7995,736.6136,735.1894,734.1613,732.5951,732.5497,730.3679999999999,729.8245,728.1438,727.7055,727.04004,725.8498499999998,724.50714,724.0634,591.1109008789062,590.5018920898438,588.3390502929688,588.1851196289062,588.989990234375,589.0464477539062,588.9755859375,591.0529174804688,593.0671997070312,598.9041137695312,713.47107,712.567,711.5612,710.4037,710.6612,709.6499,708.3911,707.53284,707.03937,706.0015,704.79565,591.9705200195312,591.0034790039062,587.9031982421875,586.4120483398438,584.348876953125,584.8355102539062,583.6891479492188,585.1268920898438,583.87353515625,584.7843627929688,584.7388305664062,584.837890625,585.6478881835938,588.32177734375,591.0335693359375,594.0745239257812,694.4662,693.6617,693.45844,691.8348000000001,691.8159,691.4375,690.1863000000001,690.02124,688.91156,689.8045,689.1276,687.5535,688.2654,687.12463,686.9374400000002,687.0618,686.6012,685.3198,685.53235,685.44214,684.5921599999999,684.5155,684.8933,683.3153,684.0045,684.6687,684.2368,683.37463,683.4634,682.4888999999998,682.20197,682.5807,682.40955,682.10144,682.1407999999999,682.8478,682.1947,682.5266999999999,682.5796,682.8207399999999,681.9919400000001,680.99677,682.05426,681.1665,682.0657
741.39374,740.40564,739.7954,738.5318,737.6058,736.5632,735.3650500000001,734.2116999999998,732.4159,732.1537,730.92786,730.04614,728.38074,727.374,726.7958999999998,726.0220300000001,725.07764,594.842529296875,591.2192993164062,589.5753784179688,589.30517578125,588.3502807617188,588.0062255859375,590.1482543945312,589.7935180664062,590.7971801757812,593.6567993164062,600.4536743164062,713.2419400000001,712.27136,711.5121999999999,711.1309,710.54706,708.9719,708.4707000000001,707.18787,706.87317,704.9348,705.18646,592.2772827148438,590.7538452148438,587.463134765625,585.8311767578125,584.69580078125,583.8909912109375,584.6538696289062,582.6571655273438,582.833251953125,583.5320434570312,583.4639892578125,584.82861328125,586.5332641601562,587.887451171875,591.0642700195312,594.4351806640625,693.5506,693.0494,693.3700999999999,692.11365,691.63727,691.25494,690.67554,689.264,689.19244,689.50775,689.22125,687.9585,687.7543000000001,687.244,686.0953,686.4318000000001,685.8284000000001,686.0454,685.1250600000001,685.2404,684.35706,684.73206,684.22217,683.7657,683.2846,683.8921,683.62445,682.9119000000001,683.0883,682.7672,682.88635,683.07184,682.6907,682.2009,682.17346,682.2299,682.3557,682.10474,681.9692,682.13806,682.5023999999999,681.8798000000002,682.1311000000001,682.6232,682.1362
