777.0453499999999,776.54803,775.0550499999999,773.5254499999999,771.7873499999998,771.2252,769.6258,769.2895999999998,767.5624,767.2138,766.2645,764.2376,763.22253,761.28394,760.53296,759.8815,617.746826171875,614.7901000976562,613.3225708007812,611.00830078125,609.7176513671875,607.8863525390625,606.6127319335938,604.3194580078125,604.21484375,603.3964233398438,602.1931762695312,600.3834838867188,604.4078369140625,603.20947265625,602.3497924804688,601.2335815429688,602.3939208984375,603.3195190429688,605.118896484375,605.6010131835938,606.6994018554688,606.5221557617188,606.5218505859375,606.23583984375,605.0216064453125,603.695556640625,603.662841796875,603.924560546875,603.2550048828125,603.5482788085938,603.931396484375,603.5592651367188,604.4924926757812,605.120361328125,606.2276611328125,607.8794555664062,609.8657836914062,611.8661499023438,616.054443359375,620.0139770507812,624.0697631835938,627.4718017578125,630.916015625,634.8960571289062,639.4935302734375,644.1173706054688,651.0366821289062,723.8405,724.0277000000001,722.9845,722.8643,722.95685,722.1252,722.0267,721.3664,721.54694,720.62915,720.9085,720.4952000000001,719.3915,719.4774,719.8584600000002,719.83026,718.7936,719.6568,719.1276,718.83484,718.6677,718.0156,718.1155,717.8952000000002,717.95264,718.6328000000001,717.9012,717.2727,716.83264,717.93896,717.3004000000001,717.24133,717.27,717.92126,717.89526,716.9613000000002,716.9963
776.04675,774.79755,773.8626999999999,772.40753,771.2550699999999,770.4652999999998,769.257,768.3727999999999,766.2021,765.79755,764.2704000000001,762.5214,762.4586,760.24713,760.4483,759.2285000000002,617.3235473632812,614.9130249023438,612.9450073242188,611.0156860351562,609.1428833007812,607.1741943359375,606.2401733398438,604.6552124023438,603.232666015625,602.32861328125,600.6517944335938,597.8548583984375,603.3203735351562,600.0498657226562,598.3585815429688,598.5125122070312,599.3970336914062,601.64306640625,604.3198852539062,605.9710083007812,607.0723266601562,607.873291015625,607.38427734375,606.043212890625,604.8652954101562,604.1300048828125,603.4589233398438,602.3862915039062,602.5436401367188,602.3735961914062,602.7880859375,603.5286865234375,603.5064086914062,605.4501342773438,605.8132934570312,607.2071533203125,609.1444702148438,611.007080078125,615.2833862304688,619.0750732421875,623.3052368164062,626.9873657226562,629.812744140625,634.4608764648438,639.1395874023438,643.9334716796875,649.3011474609375,723.03973,723.1501000000001,723.04266,721.8961,721.0302,721.33545,720.31396,720.42596,720.4021,720.04144,720.33435,719.1978,719.4194,717.7705000000001,718.3518000000001,717.82056,717.8312,718.1946400000002,718.4985,717.6203,718.0875000000001,717.5605,716.30457,715.9864500000001,716.9079,717.12634,715.6516,716.45764,716.5821,716.05994,716.19574,716.81805,716.49396,715.6777999999999,716.22974,716.34314,716.03937
775.7398,774.22125,772.73413,771.8758,770.7926599999998,769.63446,768.2923,767.0417499999999,766.0431,764.5096,764.4509,762.47614,760.6843000000001,758.9385,758.94165,757.3183,616.7242431640625,614.5652465820312,612.2584838867188,609.9114990234375,606.9371948242188,605.9993286132812,603.4494018554688,603.25732421875,602.3682861328125,600.9058837890625,598.3087768554688,598.5308227539062,600.9275512695312,597.0350952148438,595.8128662109375,595.8486938476562,597.731689453125,600.562744140625,603.594482421875,605.1204223632812,607.9204711914062,607.9314575195312,606.9054565429688,605.80810546875,604.9556274414062,604.4179077148438,604.2833251953125,604.0485229492188,603.61865234375,603.5628662109375,603.4688110351562,602.8243408203125,603.537109375,604.8190307617188,605.6389770507812,606.7227783203125,608.4436645507812,610.7793579101562,613.6887817382812,619.2884521484375,622.6661376953125,626.1953735351562,629.8679809570312,634.4990844726562,638.8448486328125,643.2302856445312,649.3040771484375,722.61755,722.0459600000002,722.0885,721.28595,720.6705999999999,720.3762,719.13837,720.0122999999999,719.9871,718.5326,718.4992,718.7663599999998,718.2982,717.5102000000002,717.5094,717.71704,717.17523,716.7002,717.0709,716.5362500000001,717.00146,716.00104,715.65204,715.37555,716.286,716.0494,715.53973,715.5961,715.7084399999999,715.33997,715.8258,714.9870599999999,715.4684399999999,714.9465299999999,714.87683,715.4204,714.8174
774.5027,773.0060000000001,771.5067,771.15076,769.962,768.90045,767.8067999999998,766.30475,764.5402,764.2321,762.9418,760.6023,760.21155,759.03314,758.3679,756.5615,616.6715087890625,614.02197265625,611.6630859375,609.394287109375,607.426025390625,606.1589965820312,604.7197265625,602.2555541992188,599.9962158203125,599.2361450195312,596.5068359375,596.1096801757812,597.333740234375,594.93017578125,593.5507202148438,594.0189208984375,595.2213134765625,599.0448608398438,601.8135375976562,605.5253295898438,607.5047607421875,607.6019287109375,607.1503295898438,605.8523559570312,605.5621337890625,605.3873291015625,604.081298828125,604.0023193359375,603.9070434570312,603.92626953125,604.2670288085938,604.3291015625,604.016845703125,604.9132690429688,605.8068237304688,606.535400390625,608.3185424804688,610.67333984375,613.6353759765625,617.34716796875,622.330078125,625.6934814453125,628.7039184570312,633.5384521484375,637.5926513671875,643.4216918945312,648.6621704101562,720.9168999999999,720.7817,721.2876,719.8776,720.18317,719.2105000000001,718.6917,718.9755,718.1882,717.0605,718.2934,717.7888,716.88257,717.3441,717.3123,716.7266,716.2639,715.58203,715.96545,715.2028,715.2333999999998,715.7156,714.56616,714.71075,714.2245,714.2015000000001,713.95245,714.7823,713.66736,714.31055,714.1651,714.8316,714.497,714.6957399999999,715.0847999999999,714.1015600000001,714.05524
774.226,771.815,771.1581,770.45905,769.6254,767.6594,766.24274,765.3517,764.01135,762.1623,761.8487,759.9325999999999,758.8108,757.4859000000001,757.07153,755.828,616.1495361328125,613.40673828125,611.8072509765625,609.6988525390625,607.7694702148438,605.143310546875,604.3912963867188,602.0587768554688,600.3505859375,597.322265625,595.1962280273438,594.3685913085938,594.4885864257812,592.6956176757812,592.2808227539062,592.0935668945312,593.8941040039062,596.9173583984375,600.2014770507812,604.1326904296875,606.306884765625,605.7686157226562,605.7440795898438,605.4823608398438,605.5888671875,604.8193359375,604.010986328125,602.215576171875,603.7005615234375,604.0267333984375,604.6048583984375,604.0531005859375,604.76123046875,604.1328125,605.6214599609375,606.4617309570312,607.0140991210938,609.4160766601562,612.49951171875,617.32080078125,621.3799438476562,623.8259887695312,628.4571533203125,632.9868774414062,638.1138916015625,643.7030639648438,648.5462646484375,721.3626,720.4154,720.20557,719.22003,718.6339,717.7855999999999,718.5976600000001,717.49994,717.9175399999999,717.6698999999999,716.0645,715.9358,716.75854,716.2948,716.7752,714.8647,715.6477,715.07666,714.4156499999999,714.6508,714.3061,714.5301,713.9595299999999,714.7015,714.07983,713.3790999999999,713.30914,713.39,713.3812,713.902,713.49286,713.3047999999999,712.88135,713.5099,713.3115,712.9017,712.79584
772.0076,771.3498500000001,770.1232,769.7407,767.8215,766.9631300000001,765.4391499999999,764.0569500000001,763.757,761.3223,760.6269,759.8965499999999,758.6996,758.1146,755.69073,755.0870399999999,616.1575317382812,614.3071899414062,612.1732177734375,609.8211669921875,607.62646484375,605.5614624023438,602.4632568359375,601.0708618164062,597.8799438476562,595.1346435546875,592.7410888671875,594.0663452148438,590.6664428710938,589.8490600585938,589.837646484375,591.1942138671875,592.0991821289062,594.525390625,598.7001953125,600.4743041992188,603.8073120117188,603.9354858398438,603.8801879882812,601.8265991210938,602.7891845703125,601.65234375,601.1812744140625,601.195556640625,601.9115600585938,601.9268188476562,601.5896606445312,602.1817016601562,603.1109619140625,604.4257202148438,604.8239135742188,605.6395874023438,607.0441284179688,609.0159301757812,611.5078125,616.4166870117188,620.2845458984375,624.1115112304688,628.4788208007812,631.4291381835938,636.3845825195312,641.868896484375,647.596923828125,719.4506,719.1829,719.1612499999999,718.6671,717.27045,717.5939,717.0714,716.79144,716.41956,716.5339,715.2202,715.2208,715.07367,715.15436,714.76917,714.7146599999999,713.4798,714.5583999999999,714.25006,714.15936,713.38837,713.31177,713.5621000000001,713.45325,712.7959,712.64905,712.82635,713.2331999999999,712.84247,711.91956,712.54706,711.99664,712.8103999999998,711.89606,713.04596,712.36554,712.62274
771.9547,771.0621000000001,769.4284700000001,768.7502,767.6676,765.8574,764.44727,763.7161000000001,762.1227999999999,760.5953,759.3488,759.0216,758.2902,756.44086,755.5669,753.974,616.8980102539062,615.1090698242188,612.2734985351562,609.455810546875,606.3436889648438,602.7935180664062,599.7931518554688,597.2959594726562,594.3471069335938,593.1041259765625,592.7308959960938,590.0631103515625,587.1412353515625,587.11865234375,587.59619140625,589.4404296875,591.1836547851562,593.0814819335938,595.1350708007812,598.7534790039062,601.2770385742188,601.5800170898438,601.6553955078125,601.823974609375,601.67138671875,600.6134643554688,600.4473266601562,599.7766723632812,599.5732421875,599.5656127929688,600.4437866210938,600.668701171875,601.990478515625,603.0609130859375,602.076416015625,604.9116821289062,605.7272338867188,608.2234497070312,610.7527465820312,614.806640625,619.0128784179688,622.8017578125,626.86181640625,632.1560668945312,635.875244140625,641.6369018554688,646.8193359375,719.0812,718.6399,718.11694,717.48505,717.47766,716.9938,715.78186,715.8573,716.169,715.4795,715.1651000000002,714.47156,714.5246,714.35,714.22064,714.29346,713.4259,713.3368,713.8289,713.0359999999998,713.84186,713.09894,712.7603,711.9043,711.9393,712.1587999999999,712.1799,711.9654,712.47565,712.1494,712.29803,711.91846,711.63904,711.8649,712.0072,712.13916,712.3453
771.1133,769.9269400000001,768.31177,767.8067999999998,767.2868700000001,764.62787,764.24805,763.1231,761.49567,760.52783,758.83746,757.5554,757.6000999999999,755.13824,754.54095,752.76935,615.7877807617188,612.5584716796875,608.9647216796875,605.2616577148438,602.864990234375,600.0478515625,597.12939453125,595.524658203125,593.0661010742188,591.0078735351562,591.2816772460938,585.3776245117188,584.3768310546875,583.9027099609375,584.2028198242188,585.8111572265625,588.8406372070312,591.6305541992188,593.1696166992188,595.0850830078125,596.6626586914062,598.1011962890625,599.2931518554688,599.6976928710938,599.6810302734375,599.0882568359375,598.4456176757812,598.0732421875,598.2071533203125,598.84521484375,598.7037963867188,598.481201171875,599.2484741210938,599.1550903320312,600.6016845703125,601.0921630859375,603.6300659179688,605.3856811523438,608.8815307617188,613.1961669921875,617.1217041015625,621.2503051757812,625.8150634765625,630.0159912109375,634.612548828125,640.4104614257812,645.1566162109375,718.7925,717.634,716.9214999999999,717.11176,716.1188400000001,715.36664,715.2698,715.3744,715.0379,715.00006,714.70715,714.23737,714.2769,713.7575000000002,713.7344,712.79474,712.84155,713.32556,712.2197,712.16516,712.3832,711.9483,711.20404,711.61237,712.351,711.5274999999999,711.6017999999999,711.05725,710.6763,711.2453,710.73615,711.4022,710.39734,711.3909,711.3596,710.9457,710.8252600000001
770.1202,768.9932,768.0764999999999,766.6972699999999,764.9966,764.59375,763.0217,761.8065,761.08704,760.14435,758.3041000000001,756.2768,755.9293,754.5133699999999,753.8315,752.63306,613.4580078125,610.1444702148438,606.73388671875,603.8743896484375,601.6582641601562,598.9290771484375,596.2442016601562,593.0167236328125,592.1810913085938,586.60595703125,587.7488403320312,583.3526611328125,581.1080932617188,580.2718505859375,580.8173217773438,583.9671630859375,585.9044189453125,588.973876953125,590.7835693359375,591.9619750976562,593.3285522460938,594.4691772460938,595.4767456054688,596.8841552734375,596.3654174804688,596.0374145507812,595.9586181640625,595.89990234375,596.4519653320312,596.1353149414062,596.1375732421875,596.1848754882812,596.913818359375,597.1503295898438,598.3810424804688,598.9190673828125,601.6210327148438,603.6181640625,606.3862915039062,611.6299438476562,616.4713134765625,619.6820068359375,624.6096801757812,628.7977294921875,633.552978515625,638.61376953125,644.5316162109375,717.0776,716.42377,716.5261,715.6103,715.7396,714.0747999999999,714.16425,715.1444000000001,715.08154,714.24396,713.3173,713.09436,713.05054,712.57666,712.65985,712.4606,711.66327,712.0677,711.8282,711.87726,710.53876,711.1336,710.5883,710.6569,710.8522,710.2354,710.72577,710.56177,709.9192,710.2772,710.4026,709.99725,709.7603000000001,710.9635000000001,709.9303599999998,710.29767,710.27234
769.70483,768.14026,767.25006,766.3,764.5705,763.89014,762.1835999999998,760.26556,759.39844,758.5105599999999,758.35803,756.4892599999998,755.19525,753.6357399999999,753.59186,613.25,611.0057373046875,608.2310180664062,604.9754028320312,601.199951171875,599.7787475585938,597.5072631835938,595.03955078125,592.7177124023438,588.3890991210938,588.5821533203125,582.9222412109375,581.0997314453125,579.4691772460938,579.1036376953125,578.6082153320312,581.0582275390625,582.1452026367188,586.16455078125,588.5322875976562,589.9727783203125,590.9923706054688,592.103759765625,593.2315673828125,593.8673095703125,594.0286865234375,593.4655151367188,593.8171997070312,593.50341796875,593.30322265625,593.2704467773438,593.3767700195312,593.827392578125,594.0582885742188,595.7727661132812,597.1102294921875,597.9035034179688,600.1365356445312,602.6993408203125,605.3818359375,608.385986328125,613.6544799804688,618.0239868164062,622.884033203125,627.2633666992188,632.2211303710938,637.8060913085938,642.7941284179688,716.59106,715.43567,715.1877,715.4518,714.35626,714.4737499999999,713.55774,712.7103,713.4369000000002,712.748,712.9470000000001,712.1052,711.9061,711.7161999999998,712.7612999999999,711.9927,711.5386,711.0397,711.0175000000002,710.6632,711.34143,709.9502,709.7920999999999,709.76605,709.80255,709.80975,709.6864,709.4336,709.5871,709.42175,709.55426,709.43365,709.5223999999998,709.4671,709.402,709.5973000000001,709.48267
768.7851,767.8752,766.21875,764.68396,763.8133,762.4927,760.6125,759.0006,758.74603,756.8359,756.5535,756.1623499999998,753.7283,753.3729,752.4417,611.5795288085938,607.8138427734375,604.6476440429688,601.8504638671875,598.5347900390625,596.6666259765625,594.32763671875,591.5888671875,588.916748046875,583.2652587890625,583.9371948242188,580.7667846679688,578.2776489257812,576.8435668945312,576.561279296875,577.00927734375,578.7797241210938,581.68896484375,582.3742065429688,585.6661376953125,588.0654296875,589.3778076171875,589.72314453125,591.1621704101562,592.0978393554688,591.8861083984375,591.75048828125,591.8922119140625,591.5237426757812,590.66552734375,591.4894409179688,591.2096557617188,591.4030151367188,593.4893188476562,594.13623046875,594.5186157226562,595.91552734375,598.4634399414062,600.7439575195312,603.843505859375,606.5855102539062,610.7625122070312,615.6397094726562,621.1787109375,625.9625854492188,631.6477661132812,636.261962890625,641.7772216796875,714.82117,714.6233,715.01855,713.4643,713.55945,713.7388999999998,713.4622,712.23584,712.94525,713.36993,712.02423,711.40283,711.735,710.94586,710.95013,710.6210999999998,710.2071,710.3574000000001,710.49695,709.9124,709.4025,709.373,709.1798,708.5364,709.4338400000001,709.28485,708.4415,708.6629,708.7809400000001,707.87115,709.1607999999999,708.8009,708.6085,708.9475,708.9839,709.0642,708.97974
768.2656,766.5081,765.3376000000001,763.3194000000001,762.15106,762.2862499999999,760.9083,760.0227,757.88904,756.7334600000002,755.78015,753.46515,752.9271,751.3289,751.4912000000002,609.3452758789062,605.5623779296875,602.1490478515625,600.0896606445312,597.1129760742188,595.553466796875,592.7033081054688,589.2426147460938,586.5645751953125,583.9536743164062,580.7291870117188,577.6914672851562,576.806640625,575.3958740234375,574.4857177734375,575.3141479492188,577.631103515625,579.015869140625,582.1571655273438,583.2901611328125,586.111083984375,587.897705078125,589.2740478515625,589.8510131835938,590.90625,590.62451171875,590.412109375,590.4863891601562,590.288818359375,590.1348266601562,589.927001953125,590.0346069335938,590.3604125976562,591.4391479492188,592.5302734375,593.8504028320312,595.1160278320312,597.3575439453125,599.947998046875,602.4473876953125,605.7767333984375,608.6288452148438,613.8271484375,619.7567749023438,624.7628173828125,629.876708984375,635.9590454101562,640.2306518554688,713.7635,714.223,714.017,713.322,713.26764,711.9158,711.7161999999998,711.9187999999999,711.9542,711.0742,711.1516,710.40125,710.3462,709.6371999999999,710.4865,709.9239,709.7045,709.6788300000001,709.699,709.3664,708.5141999999998,708.35913,709.4311500000001,708.8067,707.95184,707.9673,709.0549,709.3982,707.67566,707.65063,708.4335999999998,707.9863,707.6640599999998,707.74426,707.9371000000001,707.8357,707.97845
768.06323,765.7036,764.6912,762.91345,762.61847,760.33594,759.85455,758.18884,757.48114,755.9965,755.4047,754.1971,752.4121,751.9058,751.1567,608.0393676757812,603.4553833007812,601.5907592773438,598.5675659179688,596.3548583984375,594.2748413085938,591.7451171875,587.3771362304688,583.8807983398438,580.2014770507812,578.094482421875,576.1954956054688,574.2267456054688,573.9688720703125,573.8175048828125,574.9696655273438,576.4134521484375,578.5239868164062,580.4357299804688,581.6166381835938,584.145751953125,586.0891723632812,588.0945434570312,588.86474609375,589.3162231445312,589.9000854492188,589.30810546875,589.8336791992188,588.6043701171875,588.6822509765625,588.9532470703125,589.2155151367188,589.3034057617188,590.87255859375,591.404541015625,592.4737548828125,593.870361328125,596.2112426757812,598.6002197265625,601.6102905273438,604.5418701171875,607.717529296875,612.09912109375,619.1345825195312,624.3854370117188,630.1320190429688,635.1119995117188,639.3377685546875,643.3202514648438,712.83734,713.2938,712.7755,712.1164999999999,712.2830999999999,711.7865,711.5921000000001,711.60474,711.15045,710.1703499999999,710.0681,710.0176,709.93024,709.67224,709.22955,709.4476,709.0434600000001,709.238,708.82697,708.7481,708.8156000000001,707.8112999999998,707.8403000000001,707.9445,707.4982,707.49976,707.61053,707.7342,707.03204,707.4242000000002,707.27783,707.751,706.9075,706.9998,707.2781,707.1758
765.7389,765.3477,763.3727,762.6752,761.8759,760.1697,759.4705,757.94104,756.1623,755.0739,753.97504,752.78094,751.84686,751.0741,610.3660888671875,606.162109375,602.857666015625,600.5447998046875,598.1239624023438,596.5342407226562,593.7454223632812,590.3462524414062,587.2353515625,583.773681640625,580.474853515625,576.784423828125,575.17236328125,573.5907592773438,573.4088745117188,573.0624389648438,574.3391723632812,575.94970703125,578.6217651367188,580.0464477539062,580.4676513671875,582.2108154296875,584.4761962890625,586.5411376953125,587.5223388671875,588.4840087890625,589.1948852539062,588.5255737304688,588.0794677734375,588.2714233398438,587.7683715820312,587.4461669921875,588.1513061523438,587.2825927734375,589.1417236328125,589.5806884765625,590.3048706054688,592.7884521484375,594.8165283203125,597.5962524414062,600.6935424804688,603.7501220703125,608.4389038085938,610.9357299804688,617.0025634765625,622.61376953125,628.5487670898438,634.0899658203125,638.0845947265625,642.1165771484375,647.37646484375,711.6089999999999,711.84937,712.1290999999999,710.7382,710.58875,710.8213,710.43335,710.6415,709.7619,709.7062,709.4755,709.174,708.9595299999999,708.5654999999999,707.26154,708.52216,708.47125,707.8082,707.6538,707.40295,706.96344,707.8769,707.30615,706.81964,706.8668,706.2836,705.5249000000001,705.8140000000001,706.7929000000001,706.468,706.7648299999998,705.8497,706.009,706.5862400000001,706.8616
766.16956,764.30884,763.7289,761.9386,760.6137,759.17773,757.6957,757.3215300000002,755.4179999999999,754.9054,752.8553999999999,753.17224,751.45325,750.06494,609.173828125,605.263427734375,601.7820434570312,599.4342041015625,596.8568115234375,595.3094482421875,592.3964233398438,589.7886962890625,585.9252319335938,584.8602294921875,582.6451416015625,577.30029296875,575.10400390625,574.1922607421875,573.8497314453125,573.8307495117188,574.7884521484375,578.29833984375,580.3414306640625,581.8916015625,580.4797973632812,581.8148803710938,582.9393920898438,586.3562622070312,587.7822875976562,588.6976928710938,587.8511962890625,587.9111938476562,587.236328125,586.5780029296875,587.2980346679688,586.7523193359375,587.2363891601562,587.5592041015625,587.6384887695312,588.6842651367188,590.1124267578125,590.9195556640625,593.7516479492188,596.477294921875,599.3585815429688,602.5629272460938,606.622802734375,611.2822265625,616.6270141601562,623.1023559570312,625.7216186523438,632.0106201171875,636.9892578125,641.5535888671875,644.8428344726562,647.1055297851562,710.7698,711.1485600000001,710.34265,710.2093,709.9485500000001,709.8048,709.9555,708.99115,709.0533,708.7038,709.3742,708.8686,708.1066,707.1368,707.6089,707.53015,707.07715,707.05133,706.4383,706.54266,706.386,705.8104000000001,706.1262999999999,705.64667,706.30115,706.0332,705.9738,705.53406,705.4544,705.33856,705.9249,705.13214,705.6779,706.0420999999999
765.1901,763.65247,762.2832,760.6795,759.7816,757.7977,757.5503000000001,756.1492,754.4551,753.5981400000001,753.1864,751.8451,750.8847000000001,748.7795,608.4451293945312,604.4690551757812,601.5729370117188,598.9088134765625,597.8716430664062,595.4071044921875,592.9356689453125,590.6435546875,587.3800048828125,586.8441162109375,585.8345336914062,583.1806640625,576.8062133789062,574.9295654296875,574.4720458984375,574.2943725585938,575.7722778320312,580.325439453125,582.5133056640625,582.322021484375,582.7075805664062,581.94287109375,583.9011840820312,586.833984375,587.6102905273438,587.1129150390625,587.166259765625,586.96435546875,586.6429443359375,586.4385375976562,585.5804443359375,585.9373779296875,586.1156005859375,586.6561889648438,586.5809936523438,587.717041015625,587.8870849609375,590.142333984375,591.4996337890625,594.3353881835938,598.0421142578125,602.2257080078125,606.369140625,610.503662109375,615.4135131835938,622.5327758789062,625.1928100585938,630.8914184570312,636.241943359375,639.7020874023438,644.5570068359375,649.6506958007812,650.8909912109375,710.3037,709.9433,709.8305,709.518,709.2667,708.2791,708.08295,708.5220300000001,708.7666,707.9577,708.72473,707.3344,706.1366599999999,707.0196999999998,707.06683,705.4313,706.0123999999998,705.20123,705.1716999999999,704.8608,705.47034,705.5045,705.2071,705.59174,704.60095,704.4727,705.019,704.5065999999999,704.9163,705.37036,705.2052000000001,704.83167,704.6716000000001
764.8308,762.9258400000001,761.8601,760.3321,759.557,757.5424,756.4768000000001,755.4525,754.0448000000001,753.39294,752.1916,751.6576,749.7742,748.8237000000001,606.7525634765625,603.9981689453125,601.1296997070312,598.8944702148438,597.5369262695312,595.1577758789062,593.630615234375,591.6383666992188,590.5380249023438,588.7199096679688,587.4871215820312,584.5899658203125,579.402099609375,576.5123291015625,575.012451171875,575.187255859375,576.9191284179688,580.4473266601562,582.5279541015625,582.2272338867188,582.531005859375,582.9207153320312,584.1878051757812,586.4081420898438,587.4110717773438,586.7134399414062,586.4031982421875,585.9781494140625,585.8822631835938,585.40869140625,584.9652709960938,585.3118286132812,585.716796875,585.7489624023438,585.8793334960938,586.4564819335938,587.1315307617188,588.5191040039062,590.6138305664062,593.9719848632812,597.3338623046875,601.8614501953125,605.8024291992188,608.8723754882812,615.32470703125,621.9837036132812,624.6698608398438,629.4528198242188,635.3190307617188,639.5254516601562,644.3875122070312,647.9304809570312,649.2562866210938,710.00385,709.4124,707.74884,709.0677,708.1766,707.4474499999999,706.5952,707.32935,707.0038,706.9033,707.19196,706.2354,705.6991600000001,706.4102,706.0152,705.81573,705.58215,704.77106,704.1948,704.84937,705.3647,704.4283,704.1624,703.89374,703.6828,704.1981,704.42316,704.50775,704.3300999999999,704.7728,704.4386,704.09094,703.9659
763.5686,762.90186,760.44183,759.83923,758.2228,757.2909,755.90216,754.6842000000001,753.9288999999999,752.2974,751.56464,749.87036,749.2350999999999,747.38336,605.4591064453125,603.0130004882812,600.6947631835938,599.1869506835938,596.8404541015625,595.4454345703125,594.07421875,593.000244140625,590.281494140625,589.0040283203125,587.1854858398438,584.9588012695312,582.01513671875,577.6369018554688,576.9141235351562,576.5545654296875,578.6156005859375,580.0419921875,581.046630859375,580.9583740234375,581.1448974609375,581.7474975585938,583.1334228515625,584.1914672851562,585.2850341796875,586.227783203125,586.0791015625,585.4354248046875,585.10498046875,584.69970703125,584.401123046875,584.9305419921875,584.9130249023438,585.035888671875,585.271728515625,585.8889770507812,587.5390014648438,588.0355834960938,590.3960571289062,593.225830078125,596.5538330078125,600.5501098632812,604.3164672851562,607.768798828125,614.3179931640625,621.3125,624.345458984375,630.275146484375,634.1924438476562,637.7002563476562,643.3349609375,646.1918334960938,647.4663696289062,649.5858764648438,708.6733000000002,708.54376,707.58105,708.2703000000001,706.9839,706.4375,705.9389999999999,706.6016,705.4966,706.8416,705.17566,705.9364600000001,704.8726999999999,705.69275,705.46826,704.31006,703.7341000000001,704.01263,703.87384,704.1235,703.998,704.19867,703.3476,703.888,703.9007000000001,703.2563,703.97565,704.20715,703.45197,703.8143,704.1742,703.1316000000002
763.0201999999999,761.103,759.87274,758.66876,758.204,756.61456,755.12354,754.2550700000002,752.9834600000002,751.91595,751.6105300000002,749.60724,748.9669000000001,747.10284,605.6866455078125,602.6922607421875,600.6531372070312,598.7228393554688,597.08447265625,595.401123046875,593.8851318359375,590.6770629882812,588.2171630859375,586.4091186523438,584.9047241210938,583.1223754882812,580.6453857421875,578.2280883789062,577.9957275390625,578.2967529296875,577.3499145507812,578.0030517578125,579.1454467773438,578.4132690429688,579.2579345703125,579.7662353515625,579.8240966796875,581.4942016601562,582.1975708007812,582.765625,583.9698486328125,584.04931640625,583.785400390625,583.889404296875,584.619384765625,584.3521728515625,584.255615234375,584.5149536132812,584.9177856445312,585.6034545898438,586.1336669921875,588.2267456054688,588.8479614257812,592.5855712890625,595.5156860351562,599.7203979492188,603.9461059570312,607.7227172851562,613.811767578125,619.9820556640625,625.3817138671875,629.495849609375,633.630126953125,637.1878662109375,640.9274291992188,644.7103271484375,648.0722045898438,648.5213623046875,707.6008,706.4649,707.309,706.8551,707.0328,705.2389,704.95996,704.9211,705.18274,705.6712,705.4646,703.93805,703.7855,704.67523,704.5714,703.2890599999998,703.5519999999999,702.9835,703.9468999999999,703.85767,703.2511999999999,702.7071,703.0602,701.8055000000002,702.1756,702.97766,702.68164,701.8296499999999,702.9938400000001,702.9463,702.0198,702.5703
762.3785399999999,761.01764,758.9049,757.86615,757.5964,756.5630999999998,754.31494,753.2563500000001,752.5743,751.4094,750.5179,749.01416,747.8923299999999,746.75696,605.0684814453125,602.4934692382812,599.8458251953125,597.7687377929688,596.5381469726562,594.7637939453125,591.75341796875,588.1380004882812,585.1891479492188,584.427734375,582.6921997070312,581.0640258789062,579.7293090820312,578.932373046875,577.5930786132812,576.8515014648438,576.83203125,576.7018432617188,577.4207763671875,576.2887573242188,577.046142578125,577.548583984375,578.5119018554688,578.51611328125,579.606689453125,580.3233032226562,581.7351684570312,582.025634765625,583.1698608398438,583.6227416992188,583.8544921875,584.1668090820312,583.486328125,584.04150390625,584.0869140625,585.2000732421875,585.6242065429688,587.444091796875,588.58984375,592.1778564453125,595.2791748046875,599.205810546875,603.4485473632812,607.1544189453125,613.1320190429688,619.4415283203125,624.6513671875,629.9083251953125,631.3603515625,634.6934204101562,638.337646484375,644.4541015625,648.3231811523438,648.2555541992188,707.6829,706.5869,706.7796,705.9286,706.33545,705.2154,705.2239,704.89966,704.0571,704.7623999999998,704.2474,703.11005,704.2347,704.63635,703.86176,703.0956000000001,702.4012500000001,702.66205,702.8886,702.67786,702.28876,702.169,702.1206,701.9365,701.6203,702.4267,703.3778,702.8267,702.13464,701.65436,701.9522,702.237
760.7054,759.33405,758.7729,757.55334,756.1906999999999,755.4417,753.8739,752.51086,752.3652,751.433,749.8342,748.76605,746.9618,745.073,604.7006225585938,602.04296875,600.0277709960938,598.2863159179688,595.7747802734375,592.5992431640625,589.1192016601562,585.4655151367188,583.6302490234375,581.742431640625,580.4227294921875,579.2821655273438,578.3006591796875,577.3961181640625,577.088623046875,575.996337890625,575.6085205078125,575.44970703125,575.1734619140625,575.2698974609375,575.5288696289062,575.2468872070312,576.2521362304688,576.8513793945312,577.7819213867188,578.40380859375,579.483154296875,580.8756713867188,581.7929077148438,582.2651977539062,582.6555786132812,582.8856811523438,583.3787231445312,583.9696044921875,584.1243286132812,584.808837890625,585.7576904296875,587.4767456054688,588.8424682617188,591.1243896484375,594.985107421875,598.8524169921875,603.2506103515625,606.598388671875,612.7980346679688,619.0623168945312,624.5120239257812,630.366455078125,630.182861328125,633.1824340820312,637.4052124023438,642.0537719726562,648.1029052734375,648.70361328125,706.1556,705.8556999999998,706.4486999999999,705.4067399999999,705.0448,703.9575,703.60815,703.7652,703.95105,704.1578400000001,703.5238000000002,702.7753,704.17816,703.2256,702.54865,702.3726,701.57465,702.1892,701.739,702.3112000000001,701.6988000000001,701.1451,702.1335999999999,701.2714,700.6921,702.06323,701.0594000000001,701.3092,701.6747399999999,702.0372,700.9652,700.81006
761.1474,758.663,757.73566,756.6477,756.0267,753.6983,753.2977,752.3044,751.0953,749.518,748.7951,747.7078,746.3533,744.9495,604.3106079101562,601.591796875,599.2794189453125,597.4076538085938,594.203369140625,590.3232421875,586.6476440429688,583.7273559570312,581.5069580078125,579.5078735351562,578.3280639648438,577.3731079101562,577.0520629882812,576.1862182617188,575.3536376953125,575.0816040039062,574.58544921875,573.733642578125,573.5962524414062,573.3408203125,573.7689208984375,573.9618530273438,574.642822265625,575.0466918945312,575.7295532226562,577.0333862304688,577.4496459960938,579.1439819335938,579.82080078125,581.2390747070312,581.7687377929688,581.8443603515625,582.7468872070312,582.9165649414062,583.173095703125,583.961669921875,584.9286499023438,586.6171264648438,587.8822631835938,592.1866455078125,595.61328125,599.42236328125,603.0774536132812,606.301513671875,611.572021484375,619.1163940429688,624.8027954101562,630.8432006835938,629.91748046875,633.8389282226562,638.20166015625,641.7169189453125,647.3849487304688,648.0079345703125,705.80115,704.6200999999999,705.09735,705.1734,704.5673,704.0357,703.5024,703.20795,703.9348,704.0783999999999,703.1453999999999,702.0369,703.1959,702.2128,702.092,702.13104,701.748,701.1599,701.47943,701.8046000000002,701.3298,700.81915,701.0935,700.8878,700.5499,701.4964,700.93085,700.6521,701.23694,700.75684,699.9775,700.8932500000001
759.7148400000001,758.4357,756.90906,756.50714,755.66833,753.9633000000001,752.5192,751.7298,750.15796,749.7592,747.9823999999999,747.81036,745.9033,744.8019,604.2587890625,601.31982421875,599.799072265625,596.3988037109375,592.3342895507812,588.1355590820312,584.827880859375,582.3343505859375,580.52294921875,578.2230224609375,577.0875244140625,575.6792602539062,575.0709838867188,574.2025146484375,573.6759643554688,571.9500732421875,572.0814819335938,572.4356079101562,571.5931396484375,572.3084716796875,572.2175903320312,572.0394897460938,573.5455322265625,573.0265502929688,574.371826171875,574.5242309570312,576.2228393554688,576.387939453125,578.3792114257812,578.9879150390625,580.4427490234375,580.8709716796875,581.5319213867188,582.0487670898438,583.06103515625,583.5520629882812,584.3148193359375,586.1739501953125,588.8052368164062,591.0982666015625,594.5126342773438,599.0317993164062,602.90576171875,605.8615112304688,612.0736694335938,619.7770385742188,627.0411987304688,629.3409423828125,630.8131713867188,635.3634643554688,639.9630126953125,645.5523071289062,647.8524169921875,648.0721435546875,705.6059600000001,704.8573999999999,705.11615,705.10516,704.0867000000001,703.275,702.8549,703.1804,702.8459499999999,702.2459000000001,702.6051,702.4274,701.63104,702.6422,701.2909,700.7057499999999,700.7167400000001,701.163,701.54877,700.88367,700.4565,700.32965,699.583,699.5382,700.10095,699.86945,699.4678999999999,700.5055,700.24866,700.398,699.7036,700.4347
759.4475,757.80896,757.18115,755.29834,754.14154,752.6976,751.604,750.2819999999999,749.9495,749.22345,747.833,746.7637,744.87683,743.6033299999999,604.5196533203125,601.4518432617188,597.6838989257812,595.1290283203125,591.0680541992188,586.5699462890625,583.7618408203125,580.4895629882812,579.4376831054688,576.8667602539062,576.4039916992188,575.2070922851562,574.4763793945312,572.8152465820312,571.6644897460938,570.7876586914062,570.9405517578125,571.069091796875,571.173095703125,571.7258911132812,571.1875610351562,571.3929443359375,572.734130859375,573.284912109375,572.9840087890625,574.269775390625,574.9501342773438,575.9443359375,577.0099487304688,577.722900390625,578.7545166015625,579.8873291015625,580.3380126953125,580.8157958984375,582.0029907226562,582.8184204101562,583.8792114257812,585.7623291015625,587.8975219726562,591.3443603515625,594.220703125,599.5029296875,603.0065307617188,606.1414184570312,612.7041625976562,619.9752197265625,625.8587646484375,628.852783203125,630.913818359375,637.1001586914062,643.394775390625,646.0049438476562,646.3104858398438,646.6921997070312,704.7251,704.21643,704.22504,703.6159,702.79156,703.0629999999999,702.47546,702.2283300000001,702.22375,702.5942399999999,702.41766,701.8417999999999,701.37286,700.6606999999999,700.9112500000001,700.1554,700.54126,700.28467,700.0836000000002,700.63184,699.3057999999999,699.7054,699.3758,698.5078,700.0651,700.63403,699.6652,699.8643,699.9005,698.8885,699.01154,699.7860000000001
758.3355,757.4409,755.8405,754.5455,753.51086,752.3924,752.1425,749.8965,749.69824,748.1984,746.88525,745.3895,745.0904,743.07904,603.5827026367188,600.3003540039062,596.5240478515625,593.6267700195312,589.6987915039062,586.497802734375,583.7881469726562,581.18408203125,579.1220703125,577.3547973632812,576.3938598632812,574.7772216796875,574.36962890625,572.6260986328125,571.7811889648438,571.5267944335938,570.7783813476562,571.5526123046875,571.5255126953125,570.9561767578125,571.52099609375,571.6345825195312,572.616455078125,572.4876098632812,573.3403930664062,573.5640869140625,574.918212890625,575.6015014648438,575.9800415039062,576.8462524414062,577.7633056640625,579.4892578125,580.0032958984375,580.5300903320312,581.2333374023438,582.5253295898438,583.705322265625,585.2560424804688,587.71435546875,589.9942626953125,595.5556640625,599.5452880859375,603.0509643554688,607.1370239257812,613.0767822265625,620.5244140625,625.5883178710938,628.350830078125,631.2885131835938,637.6668701171875,642.5390014648438,644.0048828125,644.4699096679688,703.75446,704.0499,703.2493,703.51044,702.1709,702.1402,701.7626,702.14996,701.96796,701.77167,701.1414,700.37573,701.08075,700.48755,700.80414,700.2961,700.08594,699.7814,699.91943,699.46893,699.4452,699.21783,699.0897,698.9075,697.9511,698.57074,698.90424,699.07764,698.6449,697.96826,698.02795,698.3752400000001,698.2039
758.46497,756.9581,755.4047,754.6145,753.71356,752.7385000000002,751.54785,749.9481000000001,748.402,747.51776,746.707,745.22626,744.90875,742.51825,603.692626953125,600.250244140625,596.7731323242188,592.8078002929688,589.3877563476562,586.203857421875,583.846435546875,582.2888793945312,579.8424072265625,578.4301147460938,577.7889404296875,576.2811279296875,574.2353515625,573.551025390625,572.1476440429688,571.7734375,571.4603271484375,572.48974609375,571.5305786132812,570.5013427734375,572.3594970703125,572.5255737304688,573.0447387695312,574.0374145507812,573.3717041015625,573.617919921875,574.9268188476562,576.2930297851562,576.2813720703125,577.1145629882812,577.7144165039062,578.6129760742188,579.37646484375,580.500244140625,581.7255249023438,582.373779296875,583.5574951171875,586.2401123046875,588.6218872070312,591.3296508789062,596.1290893554688,600.0816040039062,603.262451171875,607.3375244140625,613.0220947265625,620.8623657226562,625.0361938476562,628.45654296875,632.13720703125,634.8748779296875,638.6197509765625,641.5231323242188,643.418212890625,703.23645,703.9616,702.57587,703.0051000000001,701.9973,702.3177,701.7447,701.1953,701.24194,701.6084,700.7245,699.8856,699.7951,700.2452,700.4847,699.142,698.84924,698.5436,698.2567,699.4059400000001,698.92004,698.2853,698.7086999999999,697.83734,698.3020999999999,698.00964,698.9215,698.3771,697.6254,697.8031,697.6959999999999,698.0271600000001,698.4734000000001
758.5878,756.40796,754.9327,753.3221000000001,752.67346,750.8203000000001,750.4681,749.37787,747.5428999999999,747.1355,746.2295,744.5892000000001,743.8165000000001,742.7072,604.190185546875,600.3338623046875,596.4221801757812,593.2379760742188,589.4219970703125,587.1400146484375,585.3475341796875,584.1024780273438,581.1022338867188,578.3071899414062,576.2813720703125,575.5323486328125,574.0850830078125,573.6463623046875,571.8550415039062,571.0861206054688,571.040771484375,570.7254028320312,570.681884765625,570.4881591796875,571.100341796875,571.5248413085938,572.2608032226562,573.9622192382812,575.162841796875,575.6167602539062,575.6436157226562,575.430419921875,576.6834716796875,577.7969970703125,578.1596069335938,578.8048095703125,579.8948974609375,581.1217041015625,582.180419921875,582.4671020507812,583.5745239257812,585.7631225585938,587.92529296875,591.7128295898438,595.8505859375,600.6159057617188,604.005615234375,607.1989135742188,613.5862426757812,620.9741821289062,624.4720458984375,626.2349243164062,631.2725830078125,632.6705932617188,635.6674194335938,637.7899780273438,703.0412,703.6057,702.7533,702.04663,702.3305,701.66003,701.2666,701.5564,701.4725,699.97974,699.99506,700.6473,700.27277,699.9222399999999,700.32745,699.4486,698.3979,697.9603,697.90845,697.9411,698.36456,697.48395,697.2909,698.535,697.9404,696.80115,696.97473,697.635,697.76636,697.7984000000001,697.1684600000001,697.37573,697.7356,696.9184
756.4243,756.07733,754.3728999999998,753.23846,752.5192,750.42126,749.6828,747.38763,747.35614,745.9011,745.03735,744.08374,742.6158399999999,741.61536,603.9471435546875,600.7739868164062,597.6702880859375,594.113525390625,590.9385986328125,589.1083374023438,587.3104858398438,583.793701171875,579.1348266601562,576.8284912109375,575.0232543945312,573.364990234375,573.1685791015625,571.876953125,571.2633056640625,570.1898803710938,569.8339233398438,568.7825927734375,569.138671875,569.0328369140625,570.3408813476562,570.9407958984375,571.1466064453125,572.3900756835938,573.5347290039062,574.84619140625,576.1610717773438,576.5722045898438,576.3078002929688,577.0862426757812,578.5050048828125,579.13232421875,580.12353515625,580.7240600585938,581.6966552734375,582.9166259765625,583.6627807617188,586.57080078125,589.4342651367188,591.63720703125,596.8137817382812,600.9027099609375,604.088623046875,607.3840942382812,614.7182006835938,622.9769287109375,625.9219970703125,627.7185668945312,629.373291015625,630.8756713867188,632.532958984375,635.649169921875,702.2321999999999,702.7737,701.944,701.4917,701.5886,701.70276,701.3308,699.90027,700.5034,699.55133,699.54224,699.3995,699.3616,698.352,699.66284,698.42706,698.177,698.3119999999999,697.25885,696.9451000000001,697.9556,698.0827,697.3369,697.6038,696.5555,696.90515,697.01556,696.8053,697.5256,696.684,696.9876999999999,696.58325,696.61975,696.5069600000002
756.29364,754.8288,753.435,752.9885,751.9682,750.84283,748.4468400000001,747.8404,746.9282,745.0623,744.3370400000001,743.6798999999999,741.9599,741.56384,740.5119,601.7814331054688,598.0057373046875,595.1047973632812,592.5344848632812,589.3801879882812,585.6359252929688,581.7499389648438,578.0550537109375,575.5247192382812,574.67529296875,573.2642822265625,572.521484375,570.4906616210938,570.8922119140625,570.2582397460938,570.0700073242188,569.1874389648438,568.6072387695312,568.4952392578125,568.7228393554688,569.4191284179688,570.642822265625,571.09912109375,573.5162353515625,574.4309692382812,575.820068359375,575.6480712890625,576.8729858398438,576.3017578125,577.6956787109375,579.0328979492188,579.8521118164062,580.6630859375,582.2647705078125,582.9027099609375,584.3489379882812,586.8943481445312,590.0015258789062,593.7048950195312,596.7958984375,600.0967407226562,604.2337036132812,608.791748046875,615.8861083984375,623.845703125,627.7744140625,628.9762573242188,629.5531005859375,630.898193359375,632.2625122070312,634.9049072265625,702.0336,701.4547,701.35126,700.69586,700.9884,700.97955,699.442,700.0462600000001,699.2548999999999,698.9466600000001,699.1454999999999,698.274,699.0569500000001,697.66174,698.12994,698.5362499999999,697.85834,696.8003999999999,697.18823,695.6872599999999,697.0608500000001,696.7793,696.79694,696.3498500000001,696.3077,696.35065,696.2131,696.31464,697.2547,696.17303,697.3515,696.3966,695.7657,695.85004
755.5008,754.17633,753.0210999999999,752.2776,751.5605,749.0305,748.63245,747.29156,746.5165,745.2249,743.72534,742.26715,741.5717,740.2767,740.0570700000001,602.1304321289062,597.8480834960938,595.0767822265625,592.5068359375,589.3291625976562,584.890380859375,581.5147705078125,578.4301147460938,576.3290405273438,574.2485961914062,573.8941040039062,573.148681640625,572.4442749023438,571.7839965820312,571.7046508789062,570.9519653320312,570.4282836914062,569.7156372070312,568.52392578125,569.025390625,569.2775268554688,569.5482788085938,571.4930419921875,572.5819702148438,574.1160278320312,574.884033203125,575.2203369140625,575.130126953125,576.4850463867188,577.3609008789062,578.2520751953125,580.0261840820312,580.9868774414062,582.2861328125,583.4315185546875,585.4832763671875,586.5755615234375,590.0379028320312,593.7752685546875,596.8443603515625,601.2945556640625,605.2171630859375,609.0270385742188,615.2514038085938,624.609375,629.6279907226562,629.7858276367188,630.2105712890625,631.2114868164062,633.01318359375,702.2781,701.2878,701.57556,700.48315,700.7322999999999,700.06915,699.7828400000001,699.81,699.4963,698.54175,698.58167,698.7586699999999,698.38116,698.0137,697.67957,697.70105,697.4861,696.90814,696.82104,696.36884,696.6318,696.0857,696.2543,696.0105,695.7508,695.1142,695.4483600000001,695.6471,694.5594,695.9369000000002,695.3735,695.1988,694.95996,695.0959,694.8004000000001
754.7400500000001,753.5653,752.829,752.2378000000001,750.34863,749.9149,748.4628,745.77124,745.4731000000002,745.0634,744.2238,742.2779,739.95166,739.5113000000001,739.5345,602.0430297851562,598.6929321289062,595.5022583007812,592.5780029296875,588.8153076171875,585.2704467773438,582.4954833984375,579.978271484375,577.6629028320312,576.8831176757812,575.5369873046875,575.2987670898438,574.259765625,573.0842895507812,571.68505859375,571.8735961914062,571.2710571289062,569.9107666015625,569.7767944335938,569.9500122070312,569.6521606445312,570.532470703125,571.589111328125,572.566650390625,573.1674194335938,574.5519409179688,574.9613037109375,575.4100341796875,576.0469970703125,577.30126953125,579.0653686523438,579.9967651367188,581.4627075195312,582.1592407226562,583.3541259765625,585.0899658203125,587.71337890625,591.43896484375,594.4306640625,597.9447021484375,601.5110473632812,605.7057495117188,609.5516357421875,616.2692260742188,626.4183349609375,631.7034912109375,632.7615966796875,632.8859252929688,701.96747,701.8024,701.4395,701.1866,701.0704,700.04565,700.43634,699.73315,699.2687,699.51074,698.9965,698.3616,698.1914,698.0843,697.69366,697.604,696.6787999999999,697.31195,696.99615,696.575,696.4252,696.501,695.70264,696.6913999999999,695.4609400000002,695.2421000000002,695.09357,695.02515,694.9622999999999,694.8323400000002,695.2584,694.8371,694.777,694.5835999999999,694.674,695.1135,694.9451999999999
754.6167,753.5105599999999,752.6478,750.9365,750.29144,748.4229,747.7311,745.9012,744.7955,743.96234,743.144,741.3761999999999,740.10785,739.57306,738.15466,602.802978515625,598.7343139648438,596.04931640625,592.0161743164062,588.8798828125,586.1021118164062,583.4321899414062,580.352783203125,578.934326171875,577.5348510742188,576.3027954101562,575.807373046875,574.234619140625,573.9576416015625,572.817138671875,571.3680419921875,570.6331176757812,570.0342407226562,568.779296875,569.9077758789062,569.4750366210938,569.7765502929688,570.6258544921875,571.1093139648438,572.4016723632812,573.3775024414062,573.99365234375,575.0382080078125,576.1343383789062,576.9853515625,578.830810546875,580.0322875976562,581.2530517578125,582.562255859375,584.4337158203125,585.2958374023438,588.3577880859375,591.6221923828125,594.97021484375,598.4187622070312,601.899169921875,606.87890625,610.3194580078125,617.1002197265625,628.9918823242188,635.522216796875,636.3349609375,702.5185,702.32623,700.8272999999999,701.9166,700.8639500000002,700.25104,699.104,699.1786,699.0718000000002,698.1482,698.9781,697.1509000000001,697.2501,697.6502700000001,697.3404,698.066,696.3156000000001,695.9954,697.0026,696.28394,695.1872000000001,695.6883,695.25806,695.05536,695.3458,694.5527,695.09906,695.3135399999999,694.02356,694.12823,694.2129,694.5462,694.9207,694.4083,694.3715,693.9929,693.99164,694.6522
754.5958,753.2452,751.7319,751.29834,750.5116,748.32684,747.4784,745.76074,745.24274,743.6120600000002,742.5889,741.5277000000001,739.55115,738.9167499999999,736.9178999999999,737.07214,599.0088500976562,595.8711547851562,592.1199951171875,589.4050903320312,585.818359375,582.9764404296875,580.544921875,578.1143188476562,577.6621704101562,576.3317260742188,574.387451171875,572.7713012695312,572.6307983398438,571.53662109375,571.3475952148438,569.9973754882812,569.6261596679688,568.9361572265625,568.6405029296875,568.63720703125,569.0111083984375,569.57763671875,571.03076171875,571.79052734375,572.5673828125,573.3209228515625,574.58203125,575.3478393554688,576.8140869140625,579.2255249023438,579.9456176757812,581.8729858398438,582.9251708984375,584.470703125,586.3933715820312,589.1084594726562,592.5245361328125,595.9568481445312,599.5625,603.5208740234375,607.84228515625,612.1943969726562,619.2271728515625,631.4280395507812,703.2140000000002,702.94586,702.5165,701.9351,700.9272999999998,700.965,699.7806,700.18396,698.63904,698.78955,699.5556,698.60254,698.6458,696.5112999999999,696.8027,697.1317,696.2781,696.6333,695.9186,696.62103,694.9673,695.56067,695.19543,694.84357,694.5232,694.6673599999999,694.48254,694.0696,694.0003,694.183,693.9949,693.4576400000001,694.441,693.3342,694.38873,693.7541,692.9867,693.4058,693.6421,694.418
753.6615,752.2995000000001,751.13696,750.7822,748.2941,747.8042600000001,746.1591,746.19727,743.45715,742.3293,742.229,740.5975,739.6133399999999,738.3233,737.2302,736.2836,599.572509765625,595.9088745117188,592.1022338867188,589.1072998046875,585.8569946289062,582.3788452148438,579.846923828125,577.9190673828125,575.9000244140625,574.3222045898438,572.8297119140625,571.3309936523438,570.1123657226562,569.3903198242188,569.1001586914062,568.5079345703125,567.7329711914062,567.82177734375,567.50390625,567.46728515625,567.7703857421875,568.7978515625,569.5831909179688,570.7869873046875,571.8886108398438,572.8314819335938,574.83837890625,575.022216796875,577.0958862304688,578.4454956054688,580.6592407226562,581.6888427734375,582.7449951171875,585.1288452148438,587.4713745117188,589.9473266601562,592.0768432617188,596.5960693359375,600.0418701171875,603.853759765625,609.2781982421875,613.5084228515625,624.2704467773438,633.3687744140625,702.60565,701.53094,701.41235,700.294,700.42456,700.34375,699.738,699.0082,698.12787,698.059,698.055,697.0514000000001,697.8634,696.0713,695.9274,695.9977000000001,695.62006,697.0237,695.3037,695.47363,695.14813,695.38763,695.1608,694.50476,694.1547,694.3336,693.9621999999999,694.51855,694.2537,692.9053,693.3072500000001,693.3604,693.2469000000001,692.78955,693.4102,693.7548000000002,692.9778,693.1549,693.38763,693.09845
753.6190999999999,752.4510499999999,751.6783,749.4699,748.58704,746.3581999999999,745.18463,744.67664,743.963,742.12036,741.2217,740.4308000000001,738.8896,737.90344,737.1473000000001,736.1675,735.4983500000001,596.252685546875,592.2239990234375,588.9046020507812,585.00439453125,581.4524536132812,578.085205078125,575.7272338867188,574.5528564453125,572.824462890625,570.4964599609375,569.3419189453125,568.7429809570312,567.1146850585938,566.9677124023438,566.8323974609375,566.1354370117188,565.8814697265625,566.734375,566.4827270507812,566.8245849609375,568.1828002929688,568.8182983398438,569.908203125,570.819091796875,573.1409912109375,574.5455932617188,575.290283203125,577.2089233398438,578.7286376953125,581.0596923828125,582.3173828125,584.2197265625,585.6500244140625,587.91796875,591.0184326171875,594.2546997070312,598.0451049804688,600.886474609375,604.8912963867188,610.1294555664062,615.0262451171875,625.44189453125,702.7603,702.3077,701.41364,700.39575,700.367,699.8106,698.8425,698.7451999999998,699.1103,698.3925999999999,698.153,698.31586,696.796,696.68536,695.92664,695.92944,695.67316,696.06104,696.0934399999999,695.4798600000001,694.81274,694.51105,694.76324,694.1056000000001,693.4641999999999,694.4552,693.8472,694.1742,693.3522,693.2997,693.3442,693.0458999999998,692.9089999999999,692.8996,692.3332,692.4592,692.8103999999998,693.2556999999999,693.06116,693.0685,692.42633
752.5207,751.2396,750.6893,749.1014,748.161,746.9169999999999,745.30035,744.47784,743.395,741.7404999999999,741.1269500000001,739.9339599999998,738.17426,737.1743000000001,736.1857,736.6488000000002,735.39435,597.396240234375,593.5349731445312,588.8285522460938,584.3294067382812,580.3941650390625,577.4921264648438,574.4469604492188,571.9874267578125,570.7466430664062,568.3508911132812,567.5661010742188,566.4713745117188,566.1449584960938,565.435791015625,565.476806640625,564.8890380859375,564.93603515625,565.2035522460938,565.172607421875,566.098388671875,566.803955078125,568.2382202148438,569.6312255859375,571.0983276367188,572.8588256835938,574.0176391601562,575.1502075195312,576.5213012695312,579.4301147460938,581.2127075195312,582.6631469726562,584.2041015625,587.1752319335938,589.0132446289062,592.1735229492188,594.9150390625,599.20458984375,602.392333984375,606.7467041015625,612.3310546875,618.9013061523438,629.530517578125,702.4252,701.7619,700.537,701.16614,700.04407,699.5184,698.5519999999999,698.94995,697.8241,697.7110600000001,697.1317,697.34686,696.73773,696.2793,694.71234,695.24695,695.0167,695.2315,694.03,694.3489,694.9375599999998,695.1415,693.8607,693.8068,693.8951399999999,693.5746,693.0055500000001,692.7369,692.4689,692.8364,693.2012,692.4954,692.3232,692.25256,692.7383,692.8666,692.6684,692.7398700000001,692.7962,691.93317,691.90344
752.4036,750.69653,749.6324500000001,748.6356,747.5055499999999,745.4462,744.7405000000001,742.7927999999999,742.3677399999999,741.16284,740.514,739.42554,737.8552,737.221,736.09924,735.0458000000001,733.9673,733.27185,595.6093139648438,588.4552612304688,584.2023315429688,579.7813720703125,575.8993530273438,573.5457153320312,571.0960083007812,569.4351806640625,567.8071899414062,566.408203125,565.5814819335938,564.9218139648438,564.025146484375,563.8948974609375,563.8280639648438,563.6040649414062,564.685302734375,564.1051635742188,564.8846435546875,565.5237426757812,567.7684326171875,568.7301025390625,570.45556640625,572.2947387695312,574.40185546875,575.930908203125,577.5687255859375,579.7930297851562,581.1805419921875,583.0745849609375,585.1328735351562,587.59375,590.3773803710938,593.5805053710938,596.5156860351562,599.9445190429688,603.4476928710938,607.9552001953125,613.8621215820312,623.1582641601562,702.8578,701.63464,700.2497,701.35095,699.37866,699.12366,698.18066,698.77386,697.6817600000002,697.06305,696.3208,696.93164,696.3590999999999,695.59326,695.62134,695.7786999999998,694.5520999999999,694.2716,694.2031,694.422,693.7312,693.06635,694.4827,693.90906,692.4442999999999,693.4595,693.21466,692.2185,692.1558,692.6309000000001,692.36084,691.88214,691.71466,692.19165,691.6682000000001,691.3521000000001,691.6398300000001,691.9068,691.92444,691.7982,691.6967,691.4056
751.7239,749.9965,749.7395,747.9121,747.3181999999999,745.4676,745.2252,742.9373,742.4732,740.9349,740.1086,739.0572,737.04004,736.6048,735.06757,734.665,733.4947999999999,732.65796,596.0476684570312,589.7074584960938,584.2267456054688,579.9957885742188,575.0548095703125,573.0663452148438,570.7713012695312,569.0142822265625,566.9229125976562,565.4220581054688,564.7677612304688,564.2278442382812,563.822021484375,563.2989501953125,563.4989013671875,563.478515625,562.9835205078125,564.27978515625,564.6767578125,565.7092895507812,566.4072265625,568.6680297851562,570.2029418945312,571.9293823242188,574.070556640625,576.1248168945312,578.6968383789062,580.5573120117188,581.9996337890625,582.81103515625,586.1393432617188,589.22509765625,591.7589721679688,594.32275390625,597.733154296875,601.1629028320312,604.2672729492188,609.37841796875,614.3726806640625,630.4285888671875,701.89716,701.7469,700.78174,699.59503,699.1704,698.3527000000001,697.98596,697.9247399999999,696.51215,696.6561,695.98846,695.96606,695.6893,695.6915000000001,695.6161,694.7443,694.8667,693.99146,693.5951,694.0204,693.4677999999999,693.6303,693.19617,693.4646599999999,691.8667,692.75574,692.6209,691.3981,692.0361,691.7235,690.9289,692.0812,691.6481999999999,691.9502,691.3724,691.5823,691.177,691.7295,691.2564,691.6830400000001,691.71533,691.7550700000002
751.96387,750.2158,749.0899,747.6386,747.43,744.8427000000001,743.17676,743.2862,742.509,740.05646,739.7674,738.7664,736.3023699999999,736.23505,735.3961000000002,733.9918,733.2898,732.3541,596.40625,590.7796020507812,585.075439453125,579.6638793945312,576.2335205078125,573.0481567382812,571.2266845703125,568.5048217773438,566.5838012695312,565.322021484375,564.2296142578125,563.631591796875,563.6454467773438,563.3906860351562,563.382568359375,563.345458984375,563.1497802734375,563.7886962890625,564.8441162109375,565.775634765625,566.725830078125,568.8775024414062,569.0533447265625,572.2376708984375,573.1167602539062,575.9669799804688,578.541748046875,580.5633544921875,582.0504150390625,584.1182250976562,587.8109130859375,589.719482421875,592.999755859375,595.3619384765625,599.6155395507812,603.4005126953125,607.5089111328125,610.9146118164062,616.2820434570312,632.9091796875,701.7318,701.39905,700.2224,699.5954,698.7538,697.8213500000002,697.5705600000001,697.4109,697.3508000000002,695.8135,696.4773,694.61584,696.04034,695.30597,694.62555,694.3215,694.37994,693.4545,693.3803,692.85297,693.4256,692.16156,692.22485,692.5050999999999,692.47473,691.7442,691.4585,691.0521,691.9243,692.16425,691.21344,691.71704,691.3671999999999,691.0947,690.7869,690.97046,690.6392,691.22876,691.57263,690.9966,691.08014,690.5906400000001
751.2046,749.2663,748.71436,747.2175,746.3551,745.06134,743.01556,742.4061,741.7972,740.2711999999999,738.2311,737.9472699999999,736.4974,736.4764,734.9778000000001,734.1794400000001,733.4319500000001,731.8309999999999,730.9812,593.5743408203125,586.4957275390625,581.2450561523438,577.17529296875,573.8392333984375,570.85400390625,568.3499145507812,566.6331787109375,565.1395874023438,564.7984619140625,563.7197265625,563.2324829101562,562.9810791015625,563.5299682617188,563.1521606445312,563.0301513671875,562.9020385742188,564.8124389648438,565.5973510742188,567.4689331054688,568.3298950195312,570.8295288085938,571.9617919921875,574.5514526367188,575.7064208984375,578.8390502929688,580.9033813476562,582.664306640625,585.750244140625,588.021240234375,592.0066528320312,593.4884033203125,597.4426879882812,601.5938720703125,605.1574096679688,608.256591796875,613.600830078125,618.8170776367188,634.1707763671875,701.3677,700.01355,699.7972400000001,698.33374,698.27277,697.74536,697.60095,697.0561499999999,696.72504,696.7521999999999,694.7866,694.462,695.1337,693.7971,693.7586,693.99023,693.05225,692.873,694.364,692.6153999999999,692.7678000000001,692.7764,692.4617,692.28064,691.8746999999998,691.4315,690.8344999999999,691.1205,691.20325,690.798,690.624,690.6281,691.0328400000001,690.276,690.4740000000002,690.39075,691.0078999999998,690.3335,690.482,690.76996,689.9595999999999,690.8867
750.71497,749.3591000000001,747.637,746.827,746.0,744.7580600000001,742.7038600000001,741.9345,740.7171600000001,740.5397,738.7343,737.59607,735.5354,735.1938,734.3065,733.665,732.4955,731.2243,730.2717,594.5882568359375,588.1682739257812,582.5899047851562,577.9765014648438,573.754638671875,571.4851684570312,569.2940063476562,566.5145874023438,565.7094116210938,564.298583984375,563.5120849609375,563.7683715820312,562.9116821289062,563.420654296875,562.9137573242188,562.4520874023438,563.6679077148438,565.02734375,565.8955688476562,566.9724731445312,568.5341186523438,570.5074462890625,572.1177368164062,574.9881591796875,577.432373046875,579.9026489257812,581.6516723632812,584.1947021484375,586.7498168945312,590.598876953125,593.5147705078125,595.5701293945312,599.5287475585938,602.6580200195312,605.3517456054688,610.573974609375,615.5199584960938,626.0369873046875,701.4497,700.88837,700.2962,699.12256,698.47516,697.50696,697.3397,697.3194,695.7372399999999,696.1505,694.4048,695.04034,694.7664,694.71893,694.1616,693.53845,693.2938,692.867,692.27435,692.7488,692.49335,692.67426,691.99274,692.276,691.853,691.2631999999999,691.0249999999999,690.62286,691.2103,690.89154,690.748,690.4909,690.02966,690.3084,690.1639,690.57275,690.4787,690.2674,689.8876,690.32477,690.2356,690.1482999999998,690.0829999999999
749.5063,748.34406,747.2195,746.9045,744.9505999999999,743.30835,742.33167,741.1789999999999,739.8768,738.65173,738.42737,737.21515,736.2877000000001,735.52686,734.20593,733.1862,732.3251,731.06476,729.65283,728.551,592.0250854492188,584.6775512695312,579.87158203125,575.61279296875,572.4129638671875,570.3430786132812,567.6506958007812,565.5527954101562,564.3375244140625,563.4210815429688,563.5424194335938,563.108154296875,562.98046875,562.6084594726562,563.3378295898438,564.5859985351562,565.7718505859375,566.0780029296875,567.8016357421875,569.7709350585938,571.429443359375,573.7470703125,575.7415771484375,578.1709594726562,580.2556762695312,582.23583984375,585.026123046875,588.4385375976562,591.5928955078125,594.8875122070312,597.8148803710938,601.3297119140625,603.6434936523438,607.8408203125,612.4943237304688,618.1587524414062,628.7024536132812,700.9783300000001,700.4971,699.8112000000001,699.2010500000001,698.3663,697.9805999999999,696.5202999999999,696.80273,696.53143,695.616,693.9369,694.223,694.2967999999998,694.5956,693.4715,693.4911,693.43616,692.63055,692.6829,692.2648000000002,692.0866,691.7229599999998,691.4556,691.1513,691.589,690.50244,690.2347399999999,690.34155,690.4922999999999,690.42865,690.28687,690.1071,689.8668,689.4773599999999,689.99786,690.272,689.55414,690.2518,689.68304,689.8019,689.9367,689.80664,689.93964
749.47705,747.6188,746.62274,745.9945700000001,745.09326,743.9459,742.05066,741.3523599999999,740.09296,739.18835,737.9787,736.7834500000001,735.6475,734.5327,733.50995,732.1697,731.75775,731.5018299999999,729.64417,727.92804,594.1217041015625,586.9541625976562,581.427001953125,576.8389892578125,573.7396240234375,571.3951416015625,568.2261352539062,566.36767578125,564.925537109375,564.7235717773438,563.784912109375,563.7817993164062,564.0128173828125,564.225830078125,564.6104736328125,565.376708984375,566.7408447265625,567.0299072265625,568.5855712890625,570.1917724609375,572.6400756835938,574.8424072265625,576.66259765625,579.0164794921875,581.141357421875,584.2080078125,586.5142211914062,589.8231201171875,593.748046875,596.3853149414062,599.451904296875,603.0819702148438,606.09375,610.845703125,615.4447631835938,619.9901123046875,629.4874267578125,699.70703,700.01074,699.34735,698.161,697.3424,696.2851,695.49445,695.9322499999998,695.7964,695.0082399999999,694.57263,693.8612,693.5682399999998,694.0711999999999,693.3471,692.5685,692.9438,691.5747,691.8426,692.0273,691.77637,691.4083,690.6403,691.53314,690.9443,690.45233,690.5123000000001,690.4672,690.37537,690.06793,689.8883,689.82764,689.5745999999999,690.1467,689.1432499999999,689.1252,689.5226,689.4703,689.671,689.5124,689.38226,688.6462,689.4563600000001
748.6306,747.794,746.36206,745.48486,744.3611,743.1078,741.7692999999999,740.3368,739.75946,737.8495499999999,737.35034,736.08875,735.3900999999998,734.03314,733.2091,731.71674,731.10175,730.4928,728.7688,727.8217,727.2011,590.0614624023438,584.1792602539062,578.9042358398438,575.6792602539062,572.11962890625,569.3502197265625,567.3802490234375,566.5009155273438,565.6619262695312,565.2099609375,564.9588012695312,565.6759643554688,564.9214477539062,565.7626953125,566.3468017578125,568.3782958984375,569.0075073242188,569.93798828125,571.405517578125,573.9461059570312,576.662353515625,578.7882080078125,580.4937133789062,582.1200561523438,585.7999267578125,588.2548217773438,591.773681640625,595.2894897460938,599.0435791015625,601.4664306640625,605.6019287109375,609.2916259765625,613.3441772460938,618.9932250976562,624.3853759765625,630.4752197265625,699.71045,699.6711400000002,699.0538000000001,698.0056,697.11633,695.50775,695.7763,695.94446,694.9609,694.99414,694.4632,693.50256,693.23596,693.3001,693.2588499999999,692.6009999999999,692.39886,691.5037,691.7485,691.43195,691.66675,691.22876,691.124,690.6019000000001,690.8601999999998,690.69684,690.4131,689.663,689.9788,690.0532,689.39484,689.48267,689.1506000000002,688.7937999999999,689.1042,689.50146,689.4165599999999,689.8116,689.2224999999999,689.25165,689.34546,689.5681,689.0169000000001
748.50995,747.34924,746.0689,745.37366,744.4596,742.5002,740.6143,739.65436,739.783,738.2524,737.6406,735.6207,734.90283,733.7302999999999,733.4208,732.3641399999999,730.8632,728.9009,728.6647,728.1984,726.8926,592.6363525390625,586.5452270507812,581.8755493164062,577.633544921875,574.620849609375,571.2977905273438,569.6812133789062,568.110107421875,567.3615112304688,566.6587524414062,566.548828125,566.468017578125,566.5625610351562,567.032470703125,568.912109375,569.0994873046875,570.9530029296875,572.64599609375,574.9337768554688,576.45849609375,578.17236328125,580.1695556640625,582.32177734375,584.9177856445312,588.2271118164062,590.9891967773438,593.9329223632812,597.516845703125,601.0741577148438,604.1614379882812,607.0020751953125,611.4851684570312,616.2343139648438,620.3963623046875,625.350830078125,629.9844970703125,699.1186500000001,699.06934,697.90204,697.32416,697.13995,696.0201,694.8201,695.1466,695.15375,694.2084,693.7586,693.12646,693.1343000000002,692.0951,691.8955700000001,692.2844,692.3294699999999,691.51306,690.7023300000001,691.7463,690.9571,690.4603,690.75214,690.3546,690.5286,690.6381,689.9625000000001,689.0048,689.46185,689.9667,689.2091,688.781,688.64233,688.7224000000001,688.47723,689.1517,688.4032,688.53186,688.65656,688.6830399999999,688.3277,688.9285,688.3841
747.91455,747.26984,746.51416,744.1040599999999,743.5188,742.11664,740.8355,738.2555,738.2475,737.6818000000001,736.5695,735.2437,734.2009,733.4176,732.77856,731.49615,730.2735,729.2837,728.53546,726.7206999999999,726.1694,725.0922,591.3843383789062,584.9772338867188,580.899169921875,578.1467895507812,575.2310180664062,572.2880249023438,570.8283081054688,569.6461791992188,569.4227905273438,568.903564453125,568.7650756835938,569.0687255859375,569.8970336914062,570.4677734375,572.861572265625,573.7879028320312,575.0045776367188,576.2007446289062,578.7904663085938,580.0208129882812,582.4005737304688,584.17529296875,586.771484375,589.6527099609375,592.8369750976562,596.7677001953125,599.6317138671875,602.5023193359375,606.1337890625,609.771240234375,614.2808227539062,618.3228149414062,622.2643432617188,625.5149536132812,631.3909912109375,699.20654,697.6631499999999,698.2088999999999,696.43976,695.6588999999999,694.6736,695.5088,694.67267,694.1546600000001,693.82166,693.7764,693.28973,692.5071,692.8413,691.82855,691.938,691.4590499999999,691.1469,691.26306,691.00195,690.8230000000001,690.44934,689.86743,690.3773,690.31134,690.3963999999999,689.5995,688.9436,688.2808,688.91785,689.2602999999999,688.52075,688.8556,688.15466,688.7735,688.7102,689.1011000000001,688.0881999999999,687.7645,688.1997,688.3869,688.2554300000002,687.38
747.967,746.0699,746.11017,744.379,744.0858000000001,740.9281999999998,740.1428,739.76764,738.0404699999999,736.60144,735.8127,735.04034,733.82495,732.4166,731.9137,731.2657,729.3348000000001,729.2294300000001,728.06146,726.8737,726.0497,725.56055,595.953125,589.0650634765625,584.2572631835938,580.7952880859375,577.5635986328125,575.3933715820312,573.3526000976562,572.7891845703125,572.0320434570312,571.7573852539062,571.2919311523438,572.2413940429688,572.5232543945312,573.0093994140625,575.4441528320312,575.4138793945312,577.865234375,579.0888061523438,580.6743774414062,582.570068359375,584.3748168945312,587.07861328125,588.9913940429688,593.001220703125,595.8446044921875,598.7298583984375,601.5714721679688,605.1566772460938,608.3696899414062,612.6293334960938,616.3623657226562,619.4362182617188,623.7592163085938,626.9907836914062,630.7000732421875,698.86865,698.28644,697.5935,697.2618,696.5223000000001,694.96484,694.2963,694.7715,693.8659,693.72534,693.2231,692.8153,691.9836399999999,692.26666,692.35455,690.98413,691.7470000000001,691.2946999999999,690.90643,690.4624,689.6781,690.89056,690.08624,690.1874399999999,689.9670000000001,689.4777999999999,688.3492,689.01917,688.8563999999999,688.1338,688.9903000000002,688.1225,688.6746,687.8963,687.325,687.9283,687.505,688.6816999999999,687.1931,688.0162,687.7993000000001,687.4336,687.9942600000002
747.06836,745.8176000000001,744.7819,744.3536,743.01154,741.6138,739.17065,739.2618,737.55566,736.77496,736.19135,734.30835,733.531,732.6014,731.76324,730.5823,729.5622000000001,728.69366,728.37177,726.80634,725.7674,724.29126,599.2691040039062,593.30029296875,587.8810424804688,583.918212890625,581.0938720703125,579.1461791992188,577.5889892578125,575.8360595703125,573.8740234375,574.5311889648438,573.8779296875,574.6434936523438,575.80712890625,576.3024291992188,577.6112060546875,578.7374267578125,579.9530029296875,580.6915283203125,583.2030029296875,584.8628540039062,587.766357421875,589.8511962890625,592.3877563476562,595.6241455078125,598.0372314453125,600.6723022460938,603.1954345703125,606.6818237304688,609.6103515625,613.8700561523438,617.1891479492188,620.5393676757812,623.876708984375,626.9827880859375,632.1083374023438,697.8595,697.265,697.14636,695.9774,694.184,694.21954,694.049,694.0495599999999,693.2699,693.0186000000001,693.1071,692.4836,691.7658,691.78156,691.825,691.1455,690.9659,690.58545,690.5118,690.5952,690.58264,689.4799,689.7003,689.5693,689.7341,688.4335999999998,688.19904,687.457,687.99536,687.85596,688.55597,688.4095,687.92816,687.5323000000001,687.0869,687.62195,688.0019500000001,686.77814,687.15454,687.01843,687.2184400000001,687.44183,686.9462999999998
747.3856,745.0245,744.8086,743.9394500000001,742.0707,740.9344999999998,739.23096,737.88617,736.89526,736.05524,735.5869,734.15125,733.9587,732.15546,731.9216,730.66736,730.2958,728.50183,726.9100000000001,725.94073,724.74805,724.19214,601.3739013671875,598.4924926757812,593.0803833007812,588.260986328125,583.7303466796875,582.078369140625,580.3116455078125,579.2139282226562,578.617431640625,578.1198120117188,578.2535400390625,577.7060546875,578.5867309570312,578.733154296875,579.544677734375,580.8114013671875,582.10546875,583.3275756835938,585.6693115234375,587.2763671875,589.8285522460938,592.955078125,595.0150756835938,597.478271484375,599.741943359375,603.1798706054688,606.0009765625,608.5408325195312,611.3453369140625,614.6495971679688,617.9170532226562,621.1791381835938,624.6639404296875,628.1499633789062,631.9517211914062,698.54553,697.2168,696.6144399999998,696.70905,694.6930499999999,694.6373,693.51917,693.9695,692.9208,692.8196,692.6129000000001,692.05237,692.3985,691.40515,690.9925,690.5643,690.9362999999998,690.57294,690.5448,690.53973,690.39526,688.9358,688.505,689.7447999999999,689.0693999999999,689.1711,687.61273,688.1893,687.5772,688.0271,687.9577,687.2044,686.82855,687.3972000000001,687.7486,686.67053,687.3313,686.90375,686.7574,686.7485999999999,687.21405,686.2421,686.9411
747.67535,745.1521,744.1686400000001,744.0034,741.62866,740.6584499999999,739.57294,737.9877999999999,736.9629,736.2511,735.093,733.97675,733.4171000000001,732.1359,731.0711000000001,730.2644699999998,728.75903,728.1354,727.3117,726.4842999999998,724.88556,724.0277000000001,606.1189575195312,600.9052734375,597.9757080078125,592.4033203125,589.0701293945312,585.3814086914062,582.4259033203125,581.568115234375,581.2540893554688,580.8677978515625,580.3413696289062,580.2722778320312,580.8585205078125,581.7487182617188,581.8394165039062,583.7194213867188,584.8282470703125,586.2228393554688,588.7599487304688,589.4586791992188,593.0177001953125,595.4971313476562,597.4017333984375,599.3015747070312,601.436767578125,603.70947265625,607.4091186523438,610.881591796875,612.61767578125,615.2889404296875,618.3703002929688,621.7313842773438,624.5245361328125,627.9440307617188,633.181640625,698.5671,696.61835,696.4309000000001,695.0236,695.13245,693.9349400000001,693.65875,693.3549,692.6304,692.598,692.1184700000001,691.7138,691.4865,691.1892,690.78345,690.3917,689.978,690.9519,690.3693,690.0428,689.801,689.2174,687.65924,689.3728,688.6087,688.1605,687.7837999999999,687.70215,686.89075,687.4001499999999,687.13666,687.525,686.7314,686.2864,686.8056,686.19543,686.9772,686.5451,686.0851,686.54144,685.7799,686.45483,686.4859
746.40485,745.17175,743.70593,742.6158399999999,741.0433,740.24774,739.1583,737.9224,736.4198,735.45966,734.8612,733.5016,731.8834000000002,731.6703,731.5526,729.1588,728.5805700000001,728.2468,726.1877400000001,726.1942999999999,724.1769,723.4692,609.9989624023438,604.3056640625,599.0382080078125,597.6030883789062,593.9632568359375,590.7130126953125,587.0103149414062,585.8616943359375,585.6146850585938,584.2948608398438,584.96533203125,584.7001342773438,584.3272094726562,585.5947265625,585.7412109375,587.2063598632812,587.8344116210938,589.58154296875,591.4411010742188,593.3569946289062,595.1729736328125,597.4472045898438,599.138916015625,601.2048950195312,603.2874755859375,605.6402587890625,609.0313110351562,611.2208251953125,613.3091430664062,615.78466796875,618.295654296875,620.8818359375,624.7067260742188,628.923583984375,633.5132446289062,697.1533999999999,696.7355299999999,695.4436599999999,694.7881,694.0601000000001,693.6062,693.5721,692.6705,692.8969,692.1134,692.1686,691.18494,691.3722,690.89496,690.5843,690.2648999999999,690.1317,689.7672,689.35986,690.2999,689.1303,688.7158999999999,688.1197499999998,688.42505,687.95483,687.7126,687.9076,686.834,687.7805,687.0808999999999,687.0281,686.7569000000001,685.7879,685.61865,686.8839,686.4192,686.59357,686.1521600000001,686.6766,686.8478400000001,686.4779999999998,686.07007,686.04736
746.60034,744.6259,743.1675,742.7048,742.0884,739.44684,738.0476999999998,737.6899000000001,736.2512000000002,734.84534,734.58124,733.90344,732.864,730.4975,729.40076,728.8723,728.1318999999999,727.2844,726.90155,724.42096,724.4653,722.84155,610.7754516601562,607.6773071289062,601.8364868164062,596.8502807617188,594.45751953125,594.043701171875,591.4019775390625,590.3040771484375,589.8350219726562,588.4680786132812,587.4814453125,588.1842651367188,587.790283203125,587.9432373046875,589.4563598632812,590.3253173828125,591.4432983398438,592.5345458984375,594.3719482421875,595.730224609375,597.65673828125,598.7244262695312,600.7817993164062,601.24755859375,604.382080078125,606.9554443359375,609.7202758789062,611.6768188476562,614.0733032226562,615.6348266601562,618.4169311523438,621.3794555664062,624.59033203125,627.6044921875,632.2664184570312,696.7766,696.28973,695.8601699999999,693.86365,693.93884,693.3887,693.0827999999999,693.1522,692.71954,692.1661,691.58417,691.2021,691.1061,690.4566,690.41766,689.8814,689.5167000000001,688.89594,688.8034700000001,690.043,688.6917,688.9607,688.06134,688.4898,687.9783,687.8417,687.2554,686.36115,686.0992999999999,685.95215,686.425,685.98505,685.2764,686.11237,685.81024,685.7032000000002,686.0211000000002,686.4137600000001,685.82874,685.6728499999999,685.885,686.0971,685.1594
745.9154,744.79285,743.0805699999999,742.8731,741.9335,739.42145,738.4959000000001,737.15564,736.7445,735.4114,734.4946,733.5458,731.91254,731.1449,729.9909,728.9991499999999,728.48047,726.9142999999999,725.5913,723.8611000000001,724.1585,723.4968000000001,613.8903198242188,610.8887329101562,604.83837890625,601.7630615234375,598.0117797851562,595.3070678710938,594.3612670898438,592.6543579101562,591.5609130859375,590.343017578125,589.9202270507812,589.9398193359375,589.5695190429688,590.489501953125,591.5648193359375,592.3379516601562,592.5022583007812,594.1100463867188,596.0410766601562,597.3887939453125,598.611572265625,600.1341552734375,602.1848754882812,603.90771484375,605.2314453125,608.4977416992188,610.537841796875,612.375732421875,613.7345581054688,616.9047241210938,618.5018920898438,621.5139770507812,624.6783447265625,626.993896484375,632.1742553710938,696.57355,696.29596,695.9676,693.4488999999999,694.28516,692.1894499999999,692.6017,692.3423,691.4215,691.2763,691.14374,691.17444,690.8726,690.3685,690.5042000000001,690.49854,689.4858999999999,689.5536,688.5654999999999,688.76215,688.6179,687.82513,688.1877399999998,688.6935,687.5942,686.58655,686.64905,686.133,686.1490000000001,686.8017,685.87213,686.4002,686.0893999999998,684.8769,685.7592,685.7484,685.60114,685.9193,685.8781999999999,685.33997,685.33203,685.14777,685.14417
745.59906,743.76776,742.6884,741.8704,741.0472400000001,738.6872600000002,737.5602000000001,737.0631000000001,735.9884999999999,735.12103,733.9333,733.53723,732.39636,730.98065,730.0073,728.0865,727.83673,726.43695,725.66724,725.0793999999999,723.2872,723.11755,615.548828125,610.4197387695312,606.0421752929688,603.8427124023438,600.7960815429688,597.2565307617188,595.1198120117188,593.9291381835938,592.601806640625,592.6987915039062,591.5022583007812,590.6898803710938,591.2222900390625,591.1845703125,591.3104858398438,592.5326538085938,594.2218627929688,595.6629028320312,596.9525756835938,597.9107055664062,599.1699829101562,600.9006958007812,603.1144409179688,604.2545776367188,606.0184326171875,608.6910400390625,610.6759643554688,611.9775390625,614.2935180664062,616.5321655273438,617.7288818359375,620.3483276367188,622.3954467773438,626.8637084960938,631.1383056640625,696.2709,694.9298999999999,694.0549999999998,694.2929000000001,693.4006999999999,692.9927,691.9827,692.3939,691.4875,691.03876,690.88086,690.8896500000001,690.4643599999999,690.3204,689.6056,689.4334000000001,688.8778,688.6322,688.10474,688.3247,688.0451,687.9204,686.6519,686.3921500000001,687.2758,686.95966,686.1316,686.4430500000001,685.78125,686.1704,686.177,685.7402,685.64624,685.6369,685.55457,684.7330999999999,685.2585999999999,684.8568,684.9778000000001,685.4998,685.0565,684.84143,685.2324
745.20215,743.9022,742.99786,741.06287,740.4967999999999,739.4786999999999,737.8974600000001,736.5377,735.4838,734.74176,734.1481,733.19434,731.5871,731.3103,729.36444,728.25244,728.35016,726.2669700000001,725.18164,724.88654,724.1567,616.063232421875,616.260009765625,611.2931518554688,607.6049194335938,606.4090576171875,603.2064819335938,599.2275390625,595.963623046875,593.7342529296875,593.2598266601562,591.8861083984375,591.5128784179688,590.9896240234375,591.2342529296875,591.4085083007812,592.260986328125,593.083984375,595.073486328125,596.0142822265625,597.1550903320312,599.1746215820312,600.0409545898438,601.7520751953125,603.4127807617188,604.5311889648438,606.7339477539062,608.9049682617188,610.5653686523438,611.7431640625,613.7103271484375,615.6028442382812,617.9678955078125,620.4000854492188,622.8753051757812,626.1560668945312,630.095703125,695.8639,694.7935,694.34265,693.2592999999999,693.40515,692.58594,692.4187,691.328,691.08484,691.2592,690.6476,689.955,690.5906,689.9411,689.3998999999999,689.0569500000001,688.0692,688.4719,687.59076,688.22327,688.0044,687.31323,687.52606,687.6171,687.1067500000001,686.6853000000001,685.6497,686.3436,685.4197,685.76843,685.9962,685.5904,685.106,685.7523000000001,684.6432500000001,685.5015000000001,685.6938,684.52783,685.49976,684.9,684.99524,684.72485,684.9547
745.1488,743.6079,742.2067,741.1383,740.1431,738.5345,737.4265,736.5358000000001,735.24634,734.7663,733.66797,732.3363,731.0663999999999,730.3487,729.9294399999999,728.5105,726.8465000000001,725.6647,725.16266,724.00415,723.5273,616.5704345703125,615.6097412109375,610.2206420898438,609.1224365234375,607.580810546875,603.8338623046875,600.5538940429688,596.8046264648438,594.37451171875,593.3414916992188,592.8927612304688,591.9531860351562,591.5833129882812,590.5184936523438,591.2977294921875,592.8136596679688,593.5601806640625,595.8260498046875,596.2431640625,597.5178833007812,598.8077392578125,600.7530517578125,602.1875,603.57666015625,604.8361206054688,607.126708984375,608.000244140625,610.8606567382812,612.2968139648438,613.5426025390625,615.2579956054688,617.1839599609375,619.5941772460938,622.178466796875,625.1550903320312,628.9434204101562,695.749,694.4780000000001,693.6482,693.6605,693.16785,692.8851,691.73517,691.3777500000001,691.14197,690.7554300000002,690.5189,690.20856,689.5534,688.864,688.96686,688.2273,688.6195,687.5840500000002,687.3100999999999,687.9664,688.088,687.0700999999999,686.8008,687.7607,686.7060000000001,686.4707,685.86005,685.5463,685.08685,685.73444,685.7048,685.3130999999998,684.8347,684.7731999999999,684.90674,685.34424,684.80005,684.7825,685.24536,684.4739400000001,685.3025,684.1912,684.3633
744.6574,742.76215,742.09406,740.76764,739.6623999999999,738.596,737.3957,735.5463,735.23596,734.3063,733.1924000000001,731.8668,730.2795000000001,728.754,729.4653,727.6608,727.24066,725.1498000000001,725.0038,724.09625,722.54755,616.9329833984375,615.2919921875,611.7590942382812,608.5118408203125,606.98583984375,604.3016967773438,601.268798828125,598.0746459960938,594.9637451171875,592.9491577148438,592.994384765625,592.2381591796875,591.3365478515625,591.54931640625,591.9493408203125,593.3250732421875,593.7713012695312,595.4568481445312,596.6998901367188,598.3587646484375,599.4353637695312,600.3289794921875,601.9420776367188,603.4271240234375,605.3834838867188,606.36669921875,608.787841796875,609.9830322265625,611.774658203125,612.996337890625,615.2962646484375,617.1367797851562,619.1156616210938,621.2803344726562,624.5098876953125,628.2080688476562,695.021,694.7565299999999,693.84375,693.4368,692.0493999999999,692.61914,691.749,691.11273,690.8693,691.07385,690.7903,689.5998,689.66626,689.4999,688.30334,688.44885,687.3371,687.8877,687.20154,688.0124,687.2283300000001,686.4102,686.5663,687.15326,686.34814,684.9184,685.3506500000001,685.3669,684.79443,685.0440000000001,685.0570700000001,685.38916,683.7951699999999,684.7709399999999,685.1233,685.2394000000002,684.7493,684.11554,684.01294,685.125,684.8566,684.59796,684.9933
744.1790000000001,743.3464000000001,741.0521,740.39905,739.15216,738.7937999999999,737.24115,735.23083,734.84595,733.9383,732.75574,731.68744,729.86847,729.7754,727.73706,727.78796,726.1447,726.00684,724.2116999999998,723.58276,722.8531499999999,617.6734008789062,615.127685546875,611.4847412109375,608.9363403320312,607.2946166992188,604.7926025390625,602.2443237304688,598.0333251953125,595.4086303710938,593.78173828125,593.549560546875,592.5357666015625,592.0337524414062,592.7189331054688,591.9993286132812,593.7622680664062,594.5648193359375,595.6427001953125,596.9446411132812,598.6947631835938,599.7732543945312,600.8877563476562,602.185302734375,603.3399658203125,605.2049560546875,606.8543701171875,607.8995361328125,609.3989868164062,611.5989990234375,612.2611694335938,614.3599853515625,616.321533203125,618.6473999023438,620.8514404296875,623.5226440429688,628.2474975585938,694.38806,694.2622,693.6438,693.5665,692.2012,691.4609,691.5412000000001,691.0212,691.479,690.48254,689.59436,689.2626,689.0322000000001,688.6357399999999,688.0479,688.1786999999999,688.1576,687.32526,687.2482,686.9261,687.2256,686.1163,686.05005,686.0752,686.0735,685.20087,684.6878000000002,684.48224,684.5083999999999,684.681,684.8097,684.7604,684.1943000000001,684.047,684.131,683.9364,684.14484,683.54535,683.8814,684.3481399999998,684.40247,683.20184,683.0315
744.1684599999999,743.12085,740.8564,740.82666,739.4633,737.03235,736.0209399999999,735.6541,735.0034,734.3208,732.4026000000001,731.81683,730.6129,729.5104000000001,728.3618,727.21893,726.4517,726.4175,724.9802999999999,723.01495,722.8287,617.8134765625,614.8897705078125,611.44482421875,609.2665405273438,607.9620361328125,604.8849487304688,601.9315185546875,598.4346313476562,595.6716918945312,594.8984985351562,593.904296875,592.8573608398438,593.1213989257812,592.9589233398438,593.40380859375,594.45068359375,595.0482788085938,596.1282348632812,597.28955078125,597.8718872070312,599.1614990234375,601.4173583984375,602.3140869140625,602.5512084960938,605.1439819335938,606.2013549804688,607.7095947265625,609.5477294921875,610.895751953125,612.1140747070312,613.8252563476562,615.8656005859375,617.7765502929688,620.2139892578125,623.3758544921875,626.5177612304688,694.797,694.1825,693.22186,692.7234,691.95105,691.4332,691.13965,690.6266500000002,690.93835,689.6717,689.89526,688.5804,687.9945699999998,688.9191,688.0111999999999,688.45056,687.57513,687.7117,687.29156,687.4914,686.5395,685.5312000000001,685.9459000000002,685.79364,685.95337,685.31244,684.2417,684.9938,684.44617,684.3971999999999,684.4300499999999,684.8123,684.7179,683.9466,683.1867,683.3484,683.85187,684.2118500000001,683.0746999999999,683.777,683.2246,683.9930400000001,683.6758399999999
743.84265,741.6788299999998,741.41644,740.4771,738.5667,737.02106,735.756,735.19055,734.5365000000002,733.1005,733.03595,731.4977,729.80035,729.3800699999999,728.39246,727.2718,726.60944,725.17236,724.8027,723.8514,722.6263,618.3651123046875,615.2988891601562,611.7976684570312,609.0007934570312,607.387451171875,605.3375854492188,602.7335205078125,599.2278442382812,596.8261108398438,595.557373046875,594.5064697265625,592.4482421875,593.1524047851562,593.5963134765625,593.924560546875,594.6104125976562,594.86962890625,595.5496215820312,596.7789916992188,598.6533813476562,599.3897705078125,601.263671875,602.2144775390625,603.0894165039062,604.6710205078125,605.9988403320312,607.2637329101562,608.2136840820312,610.94775390625,611.7727661132812,613.1675415039062,614.7930908203125,617.0158081054688,619.5049438476562,622.3084106445312,625.7933349609375,694.7507,693.3531500000001,693.093,692.1835999999998,691.6087,691.37134,690.90125,690.1768,690.5080599999999,689.9996,688.8072,689.2849,689.3899999999999,688.6003,688.2528,688.09186,687.98816,686.7143599999999,686.67975,686.8486,686.3619,686.40845,685.5099,685.3,685.4645400000002,684.3162,684.4651999999999,684.9644,684.1257,684.8232,684.03406,684.20233,684.7109,684.0812,683.3717,683.80035,684.2491,683.5305,683.87585,683.5742,683.5025,683.3385599999999,683.4252000000001
743.7613,742.8798,741.3919699999999,739.66315,739.0862400000001,737.16547,736.37555,735.85815,734.3446,733.85693,731.8764999999999,731.6612,729.9042399999998,728.0406,728.52997,727.0823,725.4391499999999,724.55585,724.3677,723.14777,721.4863,618.3331909179688,615.0193481445312,612.0794677734375,609.746826171875,606.9591674804688,605.0223388671875,602.2822875976562,599.072509765625,597.3624267578125,596.0007934570312,594.7979125976562,594.185546875,593.6507568359375,593.5950927734375,594.4373779296875,594.601806640625,594.2805786132812,595.5133666992188,597.1256103515625,598.2074584960938,598.6898803710938,601.065185546875,601.7400512695312,603.2633666992188,604.7254638671875,606.4544067382812,607.0935668945312,608.8290405273438,609.9376831054688,612.1051635742188,613.2114868164062,614.5114135742188,616.8842163085938,618.9102783203125,621.005126953125,625.8706665039062,694.28156,693.5497,692.67944,692.8129,691.71,691.2532,690.2027599999999,690.5547,689.9179000000001,689.6478,688.8766,688.6972000000001,688.91626,688.5089,687.9667,686.3855,686.9072,686.0401,686.53864,686.8272,686.4383499999999,685.5889,685.63983,685.2160000000001,685.6365,685.1231,684.78357,684.2929000000001,683.3731,684.00885,684.2699,683.4739,683.19006,683.5953,683.5562,683.8919,684.3129,684.0515,683.1366,683.72485,682.84644,683.0409499999998,683.3787
743.59863,741.5213,741.16736,738.7573,738.2248,737.71436,735.97504,735.13367,734.0989,733.3592999999998,732.34186,730.4255,729.2307,728.9758,727.9077,726.61975,725.3781000000001,724.7503,723.6478,721.48615,721.5589,618.9415893554688,615.3229370117188,612.1105346679688,608.9652099609375,606.7514038085938,605.45703125,602.020751953125,599.271240234375,597.441162109375,596.8088989257812,596.0964965820312,595.032958984375,594.0443115234375,594.4149780273438,594.4288330078125,595.0692749023438,596.2429809570312,596.5711059570312,597.466064453125,597.7886962890625,599.6065673828125,601.0863647460938,601.14111328125,603.5327758789062,604.6310424804688,605.3873291015625,607.3203735351562,607.28369140625,609.7553100585938,611.0986938476562,613.1390380859375,614.28466796875,616.0897827148438,618.2033081054688,620.82470703125,624.440185546875,693.4352,694.1006500000001,692.2859,691.7717,691.3709,690.9832,690.39716,690.3412000000001,690.1944000000001,689.3419,689.0745,687.34204,687.52814,687.93805,686.6137000000001,687.2207000000001,687.1139500000002,686.13916,685.4249,686.3088,685.0922,685.5184299999999,685.6675,684.8040000000001,684.67346,684.1657,684.8686499999999,684.0258,683.5919,683.8027999999999,683.3678599999998,683.5369000000001,682.7503,683.3873,682.7738,682.931,683.60986,683.5794699999999,683.784,683.12317,683.62866,682.7707499999999,682.0088499999999
742.2454,741.50574,740.1491999999998,739.42334,738.4144000000001,737.08185,735.5019,734.7411,733.6593600000001,733.3381299999999,732.7270999999998,730.74695,730.36975,728.6734,728.01825,725.86615,725.6867,724.78046,723.505,722.4413,721.6267,618.798095703125,614.876953125,611.4520263671875,608.702392578125,607.1296997070312,605.4006958007812,602.1282348632812,599.4988403320312,598.466796875,596.9973754882812,595.7740478515625,594.762939453125,594.6596069335938,594.8922119140625,595.6542358398438,595.3533325195312,596.1503295898438,595.7389526367188,596.6857299804688,597.8390502929688,598.6909790039062,600.6525268554688,600.9118041992188,602.3065795898438,603.9901733398438,605.193603515625,606.5275268554688,608.2044067382812,608.9935302734375,610.8026123046875,611.964599609375,614.0241088867188,615.89111328125,618.59033203125,620.54931640625,623.9907836914062,693.9182,693.44794,692.54095,692.2655,691.63586,690.9352,690.28937,689.77765,689.9851,689.6938,689.09265,687.6441,688.19324,687.1173999999999,687.07184,686.2477,685.88416,686.218,686.1133,685.8952999999999,684.73846,684.7955,685.6674,685.7413299999998,684.60895,684.22876,683.2064,683.4169299999999,683.4913,683.61993,683.8808,683.5398599999999,682.43286,682.36993,682.7533600000002,683.1514,683.6553000000001,683.5532,682.8426,683.5643,682.95245,681.8884,682.65454
742.27783,741.69183,740.2851599999999,739.2321,737.8552,737.0563,736.3784,734.6793,734.4187,733.51685,732.12006,730.54175,728.2648,727.77277,727.8213500000002,726.6283599999999,725.7835,725.24854,722.2352,721.8444999999999,720.7921999999999,618.5151977539062,614.36474609375,610.6647338867188,608.9977416992188,607.0755615234375,604.612060546875,602.010498046875,599.58447265625,598.2006225585938,596.8364868164062,596.1378173828125,595.190673828125,594.4970092773438,594.748046875,595.03662109375,594.776611328125,593.6591796875,595.79638671875,595.9814453125,598.2162475585938,598.8822021484375,599.6292724609375,600.565673828125,602.509765625,602.6216430664062,605.1795043945312,605.7653198242188,607.44677734375,608.4371948242188,610.2158203125,610.5820922851562,612.2823486328125,615.1934204101562,617.27490234375,619.7799072265625,622.5944213867188,694.27594,692.84894,692.1788000000001,691.7931999999998,691.3329999999999,690.20807,689.5515,689.8449,688.8597,688.5553,687.4953,687.05853,687.7103999999999,687.296,686.46594,686.3171,685.78577,686.1054,685.95795,685.6511,684.78906,684.58057,684.5808,685.1458,684.67914,684.2253,683.6807999999999,683.52997,683.4625,683.186,683.3553,683.87195,682.8956,682.9303600000001,682.6896999999999,682.961,683.16113,682.4241,683.49646,682.9736,682.4619,683.44476,682.9518
742.9341,741.13715,740.2098,739.4903,738.12646,737.3722499999999,735.5631,735.14594,733.80756,733.11774,731.5027499999999,730.06836,728.91754,728.6123,727.17725,726.41516,725.2536599999999,724.1042,723.424,722.33185,721.0839,618.2783203125,614.2789306640625,610.688232421875,607.89453125,606.5200805664062,604.0966186523438,601.0843505859375,598.3410034179688,596.990234375,597.1334838867188,596.3662719726562,595.7095947265625,594.989013671875,595.0147094726562,594.4656372070312,595.3297119140625,595.6492919921875,596.6976928710938,596.8389892578125,596.9293212890625,597.994384765625,600.0598754882812,600.63330078125,600.9877319335938,601.9769897460938,603.8460083007812,605.7659912109375,605.9036865234375,607.8231811523438,609.9069213867188,611.2676391601562,612.8585205078125,614.7720336914062,617.6932983398438,619.083251953125,623.6837768554688,693.5602,692.5741600000001,692.3539,691.63324,691.80786,690.4168,690.2218,689.5919000000001,689.47253,688.85223,687.8298,687.7979,687.2434699999999,687.8529000000001,687.1862999999998,686.5917,685.87213,685.4836,685.0904,685.4907000000001,685.58765,683.7907,684.84595,684.6294,683.9695,683.9364,683.0796,682.26953,683.5682399999998,683.31616,682.4241,682.8501,682.87775,682.3396,682.7633000000001,682.6871,683.3241599999999,681.279,682.0915,682.71326,681.5855999999999,682.6485,682.7053
742.0123,740.5116,739.7107,738.44025,737.3483,736.3998000000001,735.9493399999999,734.37213,733.5220000000002,732.5022,730.9956,730.39453,729.4460000000001,727.48114,726.9944499999999,725.6852000000001,725.3665,724.3124,722.77826,721.89795,721.2435,617.4833374023438,614.2125244140625,610.0933227539062,607.7921142578125,606.003662109375,603.6065063476562,600.4141845703125,598.8087158203125,597.7362670898438,596.6329345703125,595.8516845703125,595.3703002929688,594.6546020507812,594.115234375,595.09765625,594.6651000976562,595.1831665039062,595.7427368164062,595.7884521484375,596.2623291015625,598.69580078125,599.2755737304688,600.504150390625,601.3772583007812,601.9279174804688,603.7353515625,604.80322265625,606.5950927734375,608.6598510742188,608.8612060546875,610.3260498046875,612.256103515625,614.2840576171875,615.7262573242188,619.1280517578125,621.7284545898438,625.2246704101562,692.732,692.0709,691.4243,690.80554,689.99207,689.9075,688.8034,689.2399,687.8211699999999,688.1038,687.6736,687.4185,686.33636,686.8638,686.1069,685.82635,685.39813,684.7067,685.0077999999999,684.4049,684.55566,684.3476599999999,684.26556,683.8732,684.2003,683.16156,682.77765,682.37354,683.34705,683.2535,682.1874,682.65674,681.56384,682.428,682.58167,682.35547,683.3287,682.86316,681.9061999999999,682.24335,681.3807399999998,681.96173
742.2209,740.1232,739.5109,738.0706,737.7995,736.6136,735.1894,734.1613,732.5951,732.5497,730.3679999999999,729.8245,728.1438,727.7055,727.04004,725.8498499999998,724.50714,724.0634,722.35004,721.36816,720.74304,616.6416625976562,613.095458984375,610.0230102539062,607.1207275390625,605.4598999023438,602.8414916992188,599.9846801757812,598.5393676757812,596.544189453125,596.9200439453125,595.7258911132812,595.3193969726562,594.6563720703125,594.174560546875,594.9837036132812,593.556396484375,594.7341918945312,595.0482177734375,595.5211791992188,596.2103271484375,597.0308227539062,598.4317626953125,599.3676147460938,600.2483520507812,601.7597045898438,602.4231567382812,603.717529296875,605.026611328125,606.565185546875,607.9081420898438,609.9381103515625,610.8886108398438,613.7532958984375,615.8123168945312,618.0870971679688,620.867431640625,623.9747924804688,691.8348000000001,691.8159,691.4375,690.1863000000001,690.02124,688.91156,689.8045,689.1276,687.5535,688.2654,687.12463,686.9374400000002,687.0618,686.6012,685.3198,685.53235,685.44214,684.5921599999999,684.5155,684.8933,683.3153,684.0045,684.6687,684.2368,683.37463,683.4634,682.4888999999998,682.20197,682.5807,682.40955,682.10144,682.1407999999999,682.8478,682.1947,682.5266999999999,682.5796,682.8207399999999,681.9919400000001,680.99677,682.05426,681.1665,682.0657
741.39374,740.40564,739.7954,738.5318,737.6058,736.5632,735.3650500000001,734.2116999999998,732.4159,732.1537,730.92786,730.04614,728.38074,727.374,726.7958999999998,726.0220300000001,725.07764,723.7154499999999,721.8352,721.49634,720.9891400000001,614.9183959960938,611.3610229492188,608.45654296875,605.931640625,604.25439453125,602.1132202148438,599.8351440429688,598.1920166015625,596.78466796875,596.0711669921875,595.8224487304688,595.5213623046875,595.7135620117188,594.7286376953125,594.2013549804688,593.9220581054688,594.128662109375,595.4111938476562,595.271484375,596.5411987304688,597.542236328125,598.3569946289062,598.3270263671875,600.2802124023438,599.9647827148438,602.2855834960938,603.087646484375,605.32275390625,607.1182250976562,606.8121337890625,608.9568481445312,610.8840942382812,613.1626586914062,615.2188720703125,617.222412109375,620.5543823242188,622.2764282226562,692.11365,691.63727,691.25494,690.67554,689.264,689.19244,689.50775,689.22125,687.9585,687.7543000000001,687.244,686.0953,686.4318000000001,685.8284000000001,686.0454,685.1250600000001,685.2404,684.35706,684.73206,684.22217,683.7657,683.2846,683.8921,683.62445,682.9119000000001,683.0883,682.7672,682.88635,683.07184,682.6907,682.2009,682.17346,682.2299,682.3557,682.10474,681.9692,682.13806,682.5023999999999,681.8798000000002,682.1311000000001,682.6232,682.1362
