788.9333999999999,786.72144,785.0723,784.43274,783.62555,781.4799,780.51215,779.5978,777.8772000000001,775.6944999999998,775.9659999999999,774.3487,773.01154,771.3314,770.895,769.95416,769.67267,767.5587,767.1668,765.45154,764.9999,764.27124,763.9,761.6319,761.23755,760.7058,758.98737,758.8124,758.0854999999999,755.99146,756.04694,754.7709399999999,754.7430399999998,753.7882,752.6197,752.406,751.0627,750.6485599999999,749.80646,748.42694,748.5395,747.92847,746.7515000000001,746.0256300000001,745.9997599999999,745.0142,744.5262,743.35516,743.1388,742.5268600000002,742.6128,741.3206,741.1225,741.30414,740.31476,738.6924,738.5398,737.8369,737.40375,736.3935000000001,736.00323,735.42816,735.1039000000001,733.86115,732.95483,732.6464,732.27844,732.5003000000002,732.1591,731.82733,731.53076,731.5296,731.00146,731.0432000000001,730.11523,729.8769,730.13904,729.66565,729.445,729.38275,729.2327,729.1494,729.1313,728.84796,729.0373,727.9197,728.5107,728.00793,728.7023999999999,726.9237699999999,726.94934,727.4201,727.6333,727.2866,728.5938999999998,727.54376,728.0834400000001,727.28613,728.0688,726.8168000000001
787.9359999999999,785.5125,783.6838,782.55005,781.8089,780.8819,779.1436,777.7040999999999,775.91406,775.9297000000001,774.8108,773.4347,657.2615966796875,770.5239,769.43134,770.1755,768.6514,767.3791,765.8124,764.56,764.1666,763.0958,762.83795,761.2361,759.85535,758.9311,758.30035,757.41095,755.6555000000001,755.4863,754.61163,753.9751,753.0217,752.1723,751.95416,750.9463,750.14526,749.40784,748.5306,653.2442626953125,650.735595703125,651.4341430664062,745.45746,744.6933,743.571,744.3998,743.6536,742.53326,742.18756,740.45496,741.25946,740.3898300000001,740.3627,739.3606,738.55774,737.282,736.8719,736.1634000000001,735.7921999999999,735.5226400000001,735.0633500000001,734.06464,733.4925499999999,732.7646500000001,732.1964,732.2046,730.9727,730.92755,730.6282999999999,730.4795,730.4756499999999,730.2019,729.60144,729.7782,729.2471,728.98047,729.0995499999999,728.85516,728.27155,728.42596,727.72595,728.7588,727.56854,726.9449499999998,726.85315,727.83746,726.7895,726.92584,725.98804,726.69696,727.1214,726.8164,725.7671,727.0020999999999,727.55817,726.3271499999998,727.27985,726.72327,725.89716,727.0436
786.7498,783.9840000000002,783.5368700000001,782.2722999999999,656.0927734375,653.7864990234375,653.5003051757812,777.137,775.78644,647.7488403320312,653.8028564453125,654.99951171875,659.0408935546875,657.379638671875,769.5913,768.5054,766.6529,766.1487,764.865,763.5573999999999,763.13165,762.2815,760.8966699999999,760.2219,759.11725,758.337,757.42053,756.11017,754.64996,754.4781,753.94745,752.65753,752.75446,649.1358642578125,750.1689999999999,750.3215,749.58545,747.7642000000001,748.35864,652.5962524414062,650.572998046875,651.640380859375,744.7364500000001,744.7101399999999,744.01025,742.8089,742.5988,742.1082,740.5198,740.3465,740.09674,739.441,737.991,738.4974,737.0583,736.54755,736.2597700000001,735.2934600000001,735.2042,735.26953,733.5668,733.8126,732.00964,732.4679000000001,731.5353400000001,731.2953500000001,730.6219,730.6682,729.98944,729.6335,729.6458,729.164,729.0572,728.9869,727.99854,728.3777,727.17804,727.1459,728.0557,727.88403,726.7067,727.5876,726.8465000000001,726.5012,725.7511999999999,725.8618,725.5916,726.60846,726.0919,724.8152,726.52576,726.0879,724.7694,725.7827,725.4071,725.00836,725.1445,725.4195,724.6531400000001,724.6212
653.02294921875,655.3421020507812,654.9447021484375,654.346923828125,654.5296020507812,652.6840209960938,651.7781982421875,650.3068237304688,646.706787109375,648.5789184570312,653.5552368164062,653.3878173828125,658.2387084960938,655.7894287109375,768.345,766.9051,765.6282999999999,765.43726,764.6711400000002,763.3831,762.0627,760.9129,760.0793,758.8967,758.5616,757.753,755.7317,755.9675,754.2726,753.829,753.1291999999999,750.9877,648.0630493164062,647.376708984375,651.7195434570312,749.25635,748.2750999999998,747.57434,650.9822998046875,650.0725708007812,650.5132446289062,650.9435424804688,744.1441,742.6296,742.50323,741.814,741.45087,739.89435,740.2636,739.282,738.7913000000001,738.3858599999999,737.2236,737.01935,736.8188,734.7038,735.07544,735.12897,734.5059000000001,733.46295,732.46606,732.47406,731.51526,731.3817,730.9279000000001,730.4727,729.8803,729.628,729.3272,729.1373,728.7117,728.66785,728.26044,727.5349,727.4567,727.18823,726.6352,727.461,725.4006000000002,726.29956,726.5146500000001,726.0722,725.41296,725.423,724.2681,725.1175,724.5792,725.1291000000001,724.23315,724.5839,723.7874999999999,724.1319999999998,724.2935,725.1343399999998,724.35333,725.16144,724.9730999999999,725.05664,724.02484,724.4884
650.6629638671875,654.1241455078125,654.2726440429688,653.793701171875,652.9207153320312,650.9215087890625,649.7943115234375,647.70166015625,647.3461303710938,650.9203491210938,651.9207763671875,653.1261596679688,650.1949462890625,650.7158203125,766.72144,766.0878,764.9079,764.29944,762.23224,761.79376,760.5422,760.32025,758.2851600000001,758.7046499999999,757.56824,755.4894,754.64453,754.2008,753.1297,752.1627,751.5965,750.54956,647.5628662109375,645.798583984375,647.9466552734375,747.50806,747.643,649.2791137695312,649.1632080078125,649.4909057617188,647.6099243164062,648.4661865234375,742.8231,741.50116,741.8698,740.89514,739.90137,739.4217000000001,738.59033,737.77997,737.62384,736.9036,736.6629,735.7052999999999,735.8061,734.76544,734.5977,733.25714,733.3572000000001,732.5829,731.2736,731.13074,730.8831,730.1796,729.7161,729.3264999999999,729.39307,728.65405,728.8902,727.7746,728.0980999999999,727.1596999999999,727.38074,727.2892,725.7594,725.9455,725.6942000000001,725.41895,725.39905,724.9568,725.05383,725.27423,724.20337,724.61926,723.5379,723.5292,723.3457599999999,723.35455,724.1861,723.6037999999999,723.2932,723.21484,722.82336,723.60266,723.12366,723.1298000000002,722.9001500000002,723.2317,723.5616500000001,723.50964
649.369384765625,652.2774047851562,652.847412109375,652.3226318359375,651.8764038085938,649.3245849609375,648.4973754882812,648.060791015625,650.2482299804688,650.439208984375,650.8287963867188,652.7058715820312,652.3783569335938,653.488525390625,765.31384,764.556,763.7046,763.8074,761.5855999999999,761.10986,759.7226,758.4769,758.4343,757.5076,755.7984,755.4004,753.8728000000001,753.7621,752.1871,750.9844,750.2794,749.6871,646.3253784179688,645.4293823242188,644.6834106445312,643.8555297851562,647.9804077148438,649.0504760742188,648.978515625,649.2634887695312,647.8632202148438,648.1672973632812,741.61005,740.24054,740.235,739.4635,739.7049,738.52734,738.4503,736.88403,735.66394,735.4194,735.1471000000001,734.83496,734.45496,733.17523,733.53546,733.3664,731.27606,732.1797000000001,730.7781,730.29504,729.8539,729.42725,728.2102,728.52795,728.87006,727.469,727.68555,726.15656,726.9543,726.8754,726.17413,726.1774,724.6871,724.8125,723.9997,724.70465,724.24884,724.1747,724.3958,724.0433,723.5373,723.3578,723.2624,722.40356,723.0289,722.7944,722.4595999999999,722.7708,722.6912,721.3067,722.0354599999998,722.3035,722.65485,722.607,722.2614,722.3753999999999,721.9748500000001,722.5769
646.0515747070312,645.0584716796875,651.4742431640625,651.7579345703125,650.2614135742188,647.2064208984375,648.6471557617188,646.5535888671875,648.8718872070312,649.0642700195312,649.5943603515625,652.9766845703125,652.80322265625,765.974,764.70197,763.59595,763.0399,762.3963000000001,760.68066,759.1216399999998,758.4207000000001,757.6535,647.528076171875,646.8975219726562,648.603271484375,646.3424682617188,752.96686,753.1666,751.4945,750.7277,749.6470999999999,646.8802490234375,645.3243408203125,644.9901733398438,644.8135986328125,644.5123291015625,646.7332763671875,648.3317260742188,650.3988037109375,649.4671020507812,647.9264526367188,646.7257690429688,740.12744,740.62726,739.67804,739.0929,737.8316,737.02185,736.6458,735.1193,734.6522,735.146,735.0140999999999,734.2557999999999,733.9317600000002,732.5525,732.4249,731.4358500000001,731.743,731.0899,729.8066,729.52783,728.7075,728.4432400000001,727.6063999999999,727.2049,727.2513000000001,726.1222499999999,725.80695,726.6792599999999,725.99023,724.995,725.43976,723.7903,724.7956,724.2879,724.2727,724.40204,723.59735,721.92456,722.6377,723.14935,722.2703,722.5473,721.7485999999999,721.67413,721.69354,721.52893,722.63086,721.1305,721.5493000000001,721.0174,721.423,721.2050999999999,721.5094999999999,720.69226,721.4483,720.80176,721.1764,720.7429
650.7543334960938,646.4841918945312,650.8883056640625,650.9866943359375,648.994873046875,647.1226806640625,648.320068359375,645.0862426757812,647.8447265625,648.728515625,649.00537109375,652.4602661132812,651.852783203125,763.6325999999999,763.71375,763.2550000000001,761.60175,761.0244,758.9704,757.5752,756.56573,648.0374145507812,648.3991088867188,646.770263671875,645.4361572265625,644.3245239257812,645.3504028320312,647.0293579101562,750.6648,750.0822,747.9985999999999,645.5972900390625,647.579833984375,645.0000610351562,645.0823364257812,645.373046875,645.5777587890625,648.10009765625,651.5162353515625,650.143310546875,648.257568359375,646.7821044921875,651.0020141601562,739.11707,737.75964,737.81525,736.9943,736.51965,735.8432600000001,734.41705,734.0611,734.3543,733.73956,732.91095,731.9048,732.36273,731.33575,730.1683,729.8316,729.4923,729.117,728.5072,727.30817,726.2683,726.5906,725.78827,725.7977,724.90814,725.3517,724.79926,724.5969,723.25507,724.0682000000002,722.9619,723.61383,722.35205,722.1257,722.32635,722.5190399999999,722.2110599999999,721.43805,722.0115,720.7448,721.5507,720.2524,720.9032,721.0141,721.2464,720.9364,720.3655000000001,720.1752,720.1421,719.445,719.4597,719.6022,720.727,719.9491,719.83374,720.6142,720.7795999999998
649.6159057617188,648.4927368164062,647.3289184570312,647.2926025390625,647.6165771484375,647.3309326171875,646.905029296875,647.9730224609375,649.3643798828125,648.3165283203125,648.9305419921875,653.6551513671875,650.3814086914062,650.91259765625,762.7763,761.9239500000001,760.95856,648.846435546875,646.8469848632812,647.5672607421875,649.6983642578125,647.7631225585938,647.947998046875,644.8081665039062,645.3854370117188,646.1783447265625,643.68505859375,648.9297485351562,646.2655029296875,645.3331298828125,644.8737182617188,644.84716796875,645.879638671875,646.4573364257812,646.1400146484375,646.1626586914062,644.6155395507812,647.0287475585938,651.5668334960938,650.1287231445312,648.658203125,647.6549682617188,649.0695190429688,737.5012000000002,737.25226,736.4975,735.59845,735.2946,733.7433,734.0202999999999,733.058,732.4685999999999,733.2993999999999,731.6675,731.03046,730.4818,730.2603999999999,729.8848,729.3341699999999,728.4692,728.3562,726.5873999999999,726.3743999999999,726.5682000000002,725.7899,724.81915,724.7830999999999,724.3054,724.03406,723.4528,724.27905,722.80817,723.0328399999999,722.8595,721.6588,722.2345,722.1946,721.4419,721.20605,721.853,720.9432000000002,721.29614,720.19855,719.8229000000001,719.4864,719.71686,719.6966,719.3701999999998,719.58295,719.5385999999999,719.69055,719.4773,718.0678,719.4315,719.53973,718.8984,719.26984,719.1804,719.1471,719.45435
643.7196655273438,643.8410034179688,643.4808349609375,644.3052978515625,645.24853515625,645.4884643554688,646.1822509765625,648.6582641601562,648.5257568359375,646.8936157226562,648.3741455078125,648.769287109375,647.8963623046875,648.7595825195312,649.77880859375,650.3577270507812,647.476318359375,647.9686279296875,646.8404541015625,648.2281494140625,645.8572387695312,645.214599609375,648.9063110351562,645.3865356445312,645.1848754882812,646.4102172851562,644.1702880859375,640.5160522460938,645.4544677734375,644.9857177734375,644.1109008789062,644.1417236328125,645.6500244140625,647.1700439453125,646.796875,646.4755249023438,644.3634033203125,646.596923828125,651.9970092773438,651.0136108398438,649.6055908203125,648.7127685546875,646.13525390625,736.8241,736.45496,736.3277,734.74615,734.52496,733.97565,732.8294700000001,732.8587600000001,732.5696400000002,731.8842,731.48956,730.65546,729.9063,729.3606,729.11945,728.73206,727.6054999999999,727.1493499999999,726.2298,725.97974,725.7538,724.0197,725.19995,723.34564,724.1699,722.8954,723.0309,722.51917,722.1052,721.4630999999999,721.45715,721.4558999999999,721.2577999999999,721.5671,720.7384,721.1918000000001,719.9793,720.18866,719.30853,720.097,719.5802000000001,718.9459999999999,719.2524000000001,719.1325,718.32935,718.8734999999999,718.8237000000001,718.6636999999998,718.01044,718.9546,718.1693,718.6947599999999,718.183,718.5883,718.2135600000001,718.3787,717.5302999999999
642.201416015625,642.4739379882812,643.28955078125,643.6700439453125,645.0758056640625,644.6780395507812,646.616943359375,649.2100830078125,647.1549682617188,644.9161987304688,646.4215698242188,647.405517578125,643.3063354492188,647.1177978515625,644.8908081054688,642.6973876953125,643.7758178710938,646.237548828125,644.4507446289062,644.3001708984375,644.40478515625,643.7492065429688,644.4992065429688,646.802001953125,645.7610473632812,647.030517578125,646.8253173828125,642.7554321289062,644.6653442382812,644.3147583007812,641.8117065429688,643.0756225585938,643.1943359375,646.6036376953125,646.4846801757812,645.8662719726562,646.117431640625,648.8768310546875,651.2980346679688,650.38037109375,649.8032836914062,647.5267944335938,644.6749877929688,649.9759521484375,735.1351999999999,734.6383000000001,733.9614,733.879,733.2486,731.67786,731.73083,731.70135,730.96906,730.10986,729.6790999999998,728.99756,728.17834,728.49493,727.87744,726.8341,725.4819299999999,724.9008000000001,725.3801,723.8405,724.0277000000001,722.9845,722.8643,722.95685,722.1252,722.0267,721.3664,721.54694,720.62915,720.9085,720.4952000000001,719.3915,719.4774,719.8584600000002,719.83026,718.7936,719.6568,719.1276,718.83484,718.6677,718.0156,718.1155,717.8952000000002,717.95264,718.6328000000001,717.9012,717.2727,716.83264,717.93896,717.3004000000001,717.24133,717.27,717.92126,717.89526,716.9613000000002,716.9963
641.360595703125,641.2833251953125,636.1289672851562,640.66162109375,639.6871948242188,644.9386596679688,644.85986328125,644.8837890625,646.466552734375,644.6363525390625,645.9880981445312,645.565185546875,645.4243774414062,646.3185424804688,644.243896484375,642.5217895507812,642.705078125,643.3068237304688,643.2721557617188,643.3195190429688,643.1721801757812,642.8182983398438,643.5386962890625,646.86279296875,646.8349609375,646.7283935546875,647.3782958984375,643.9757690429688,640.8837280273438,641.711669921875,642.0322265625,642.958740234375,644.7628784179688,648.3627319335938,646.4880981445312,645.4703369140625,646.531494140625,648.9142456054688,651.251708984375,648.7731323242188,648.3468627929688,647.7059326171875,648.617431640625,650.1195068359375,734.3799,733.1907,732.88525,652.9193725585938,653.4826049804688,655.1157836914062,729.7576000000001,730.43207,729.9875,729.4543,728.5019,727.8981,728.5512,727.1329000000001,727.10077,726.0123,725.6123,723.56903,723.8,723.03973,723.1501000000001,723.04266,721.8961,721.0302,721.33545,720.31396,720.42596,720.4021,720.04144,720.33435,719.1978,719.4194,717.7705000000001,718.3518000000001,717.82056,717.8312,718.1946400000002,718.4985,717.6203,718.0875000000001,717.5605,716.30457,715.9864500000001,716.9079,717.12634,715.6516,716.45764,716.5821,716.05994,716.19574,716.81805,716.49396,715.6777999999999,716.22974,716.34314,716.03937
637.7198486328125,640.9747924804688,635.8336791992188,635.6222534179688,637.1826782226562,643.4129638671875,644.2318725585938,645.998046875,647.5338134765625,646.911376953125,648.0883178710938,649.3372192382812,648.3145751953125,646.513671875,646.2081298828125,643.9395751953125,641.7295532226562,642.1589965820312,642.5820922851562,643.21240234375,641.4252319335938,641.9795532226562,645.6026000976562,646.6892700195312,647.83056640625,646.5822143554688,645.3280029296875,644.4415283203125,641.8218994140625,642.8211059570312,641.1849975585938,643.10791015625,642.3523559570312,648.025390625,645.5736083984375,644.9512939453125,645.9468383789062,647.2218017578125,651.4719848632812,649.2001953125,647.2876586914062,650.7337036132812,649.2504272460938,649.5517578125,650.4612426757812,651.4567260742188,653.8065185546875,653.5906982421875,654.9231567382812,655.5875244140625,657.586669921875,657.7246704101562,658.1569213867188,654.3803100585938,727.16614,727.6794,726.4797,726.57294,725.9064,725.4284,724.7728,723.55945,722.2282,722.61755,722.0459600000002,722.0885,721.28595,720.6705999999999,720.3762,719.13837,720.0122999999999,719.9871,718.5326,718.4992,718.7663599999998,718.2982,717.5102000000002,717.5094,717.71704,717.17523,716.7002,717.0709,716.5362500000001,717.00146,716.00104,715.65204,715.37555,716.286,716.0494,715.53973,715.5961,715.7084399999999,715.33997,715.8258,714.9870599999999,715.4684399999999,714.9465299999999,714.87683,715.4204,714.8174
635.4376220703125,635.9425659179688,636.8565063476562,636.4085083007812,638.429443359375,643.6553344726562,644.8765258789062,648.0753173828125,646.3071899414062,645.776611328125,646.2943725585938,645.60791015625,650.6580200195312,650.4464111328125,647.4011840820312,648.0733032226562,644.2147216796875,641.5205078125,642.0250854492188,642.9149169921875,641.849365234375,643.0126953125,644.5707397460938,645.4512939453125,646.2719116210938,645.87890625,645.290283203125,644.675537109375,642.6846313476562,641.3950805664062,641.8145141601562,642.0081176757812,639.3282470703125,646.8406372070312,644.8192749023438,645.3028564453125,646.6792602539062,647.9609375,649.7667236328125,649.9093017578125,651.4515380859375,650.3751831054688,649.6929321289062,649.158935546875,650.1063232421875,651.1522216796875,655.8993530273438,654.42138671875,656.1363525390625,656.2649536132812,657.4555053710938,656.962890625,655.2139892578125,653.777587890625,653.9176635742188,726.7673,725.5877,725.14355,724.96124,723.50726,723.9205300000001,722.7837999999999,721.5497400000002,720.9168999999999,720.7817,721.2876,719.8776,720.18317,719.2105000000001,718.6917,718.9755,718.1882,717.0605,718.2934,717.7888,716.88257,717.3441,717.3123,716.7266,716.2639,715.58203,715.96545,715.2028,715.2333999999998,715.7156,714.56616,714.71075,714.2245,714.2015000000001,713.95245,714.7823,713.66736,714.31055,714.1651,714.8316,714.497,714.6957399999999,715.0847999999999,714.1015600000001,714.05524
637.2097778320312,638.7509765625,642.4083862304688,640.9042358398438,641.4713134765625,643.2027587890625,645.9525756835938,649.1046142578125,647.18896484375,647.4520263671875,647.0167236328125,645.7875366210938,646.4307250976562,647.6431884765625,646.6952514648438,647.0315551757812,642.9382934570312,642.0901489257812,640.791748046875,642.14599609375,642.831298828125,643.4773559570312,643.8759155273438,642.9515991210938,645.5023193359375,642.2667236328125,641.1922607421875,640.763916015625,640.1881713867188,641.6765747070312,641.4686889648438,642.1717529296875,639.2578735351562,645.7939453125,644.1332397460938,649.1940307617188,647.295654296875,647.8751220703125,649.806640625,650.7708129882812,650.1619262695312,650.0733642578125,649.6536254882812,649.8553466796875,650.5016479492188,655.420654296875,655.0033569335938,654.4434814453125,657.0771484375,656.799560546875,656.3624877929688,658.107666015625,654.8577270507812,653.638671875,652.8037719726562,725.493,724.6437000000001,724.1217,723.9905,723.36957,722.65283,721.6337999999998,720.8515,721.3626,720.4154,720.20557,719.22003,718.6339,717.7855999999999,718.5976600000001,717.49994,717.9175399999999,717.6698999999999,716.0645,715.9358,716.75854,716.2948,716.7752,714.8647,715.6477,715.07666,714.4156499999999,714.6508,714.3061,714.5301,713.9595299999999,714.7015,714.07983,713.3790999999999,713.30914,713.39,713.3812,713.902,713.49286,713.3047999999999,712.88135,713.5099,713.3115,712.9017,712.79584
637.6620483398438,639.572265625,641.4234008789062,642.5502319335938,642.5048828125,644.8300170898438,646.0700073242188,646.8150024414062,647.9539184570312,648.389404296875,649.4046630859375,648.173583984375,646.6888427734375,645.58642578125,645.8594970703125,642.7236938476562,642.0286254882812,642.529296875,640.5474243164062,640.897705078125,640.9813842773438,641.3047485351562,644.230712890625,642.3909912109375,643.676025390625,642.4383544921875,642.1868286132812,642.0411987304688,642.3331909179688,642.2067260742188,643.2891235351562,641.980712890625,639.6691284179688,640.5985717773438,643.63134765625,647.759521484375,645.3244018554688,647.8983154296875,649.5553588867188,648.9121704101562,649.184814453125,650.2335815429688,651.316650390625,650.5963134765625,650.299560546875,652.1564331054688,652.9295043945312,652.7566528320312,656.2943725585938,655.79052734375,655.4586181640625,653.2626342773438,653.202880859375,652.144287109375,725.6061,724.46515,723.4461,723.9043000000001,722.0561,722.4656400000001,721.19934,720.6629599999999,719.9172999999998,719.4506,719.1829,719.1612499999999,718.6671,717.27045,717.5939,717.0714,716.79144,716.41956,716.5339,715.2202,715.2208,715.07367,715.15436,714.76917,714.7146599999999,713.4798,714.5583999999999,714.25006,714.15936,713.38837,713.31177,713.5621000000001,713.45325,712.7959,712.64905,712.82635,713.2331999999999,712.84247,711.91956,712.54706,711.99664,712.8103999999998,711.89606,713.04596,712.36554,712.62274
638.7833251953125,640.1276245117188,640.8396606445312,642.9354248046875,643.4818115234375,646.306640625,645.67138671875,645.6928100585938,645.9801025390625,644.5830078125,647.20556640625,642.8908081054688,646.7850952148438,644.7451782226562,642.7884521484375,642.0490112304688,644.0411376953125,643.060302734375,641.7756958007812,638.8096313476562,637.2449951171875,637.4884643554688,638.4684448242188,641.1839599609375,641.186767578125,636.5807495117188,640.2673950195312,639.6687622070312,638.9716796875,643.3973999023438,641.1493530273438,640.8446655273438,639.7478637695312,640.7462768554688,646.630615234375,646.848876953125,648.0089111328125,647.8720703125,648.9627685546875,648.9483642578125,648.88330078125,652.3143920898438,653.815185546875,650.9329223632812,651.8953247070312,649.4943237304688,648.5130615234375,652.1383666992188,652.2506713867188,654.0955810546875,654.6124877929688,653.8580932617188,653.17431640625,652.17529296875,724.0471,723.6474599999999,723.47034,723.1707,722.30554,721.0086,721.5009,720.4016,720.0444300000001,719.0812,718.6399,718.11694,717.48505,717.47766,716.9938,715.78186,715.8573,716.169,715.4795,715.1651000000002,714.47156,714.5246,714.35,714.22064,714.29346,713.4259,713.3368,713.8289,713.0359999999998,713.84186,713.09894,712.7603,711.9043,711.9393,712.1587999999999,712.1799,711.9654,712.47565,712.1494,712.29803,711.91846,711.63904,711.8649,712.0072,712.13916,712.3453
640.4966430664062,640.9794311523438,642.1967163085938,643.3645629882812,643.9837646484375,644.0844116210938,645.4712524414062,645.9100341796875,644.975341796875,643.6235961914062,642.1928100585938,641.2438354492188,643.8721923828125,642.2877197265625,644.6709594726562,647.0978393554688,644.3389282226562,642.0328369140625,640.6114501953125,638.2857666015625,635.6550903320312,634.0000610351562,633.3385620117188,637.1192016601562,636.1748657226562,635.6513061523438,636.5637817382812,637.6876831054688,638.4925537109375,638.4533081054688,640.7420654296875,638.3287963867188,640.1338500976562,643.0059814453125,644.4667358398438,645.2763671875,645.033935546875,646.7601318359375,649.83984375,648.8623657226562,651.5052490234375,653.58154296875,651.0969848632812,650.6987915039062,650.5831909179688,648.1566162109375,646.5021362304688,648.6967163085938,650.3817749023438,652.2717895507812,652.9099731445312,653.363525390625,652.5111694335938,723.9231,723.9607,723.3898999999999,722.35187,721.9654,721.13257,720.4527,719.92535,718.7293,717.6554,718.7925,717.634,716.9214999999999,717.11176,716.1188400000001,715.36664,715.2698,715.3744,715.0379,715.00006,714.70715,714.23737,714.2769,713.7575000000002,713.7344,712.79474,712.84155,713.32556,712.2197,712.16516,712.3832,711.9483,711.20404,711.61237,712.351,711.5274999999999,711.6017999999999,711.05725,710.6763,711.2453,710.73615,711.4022,710.39734,711.3909,711.3596,710.9457,710.8252600000001
641.615966796875,643.6920166015625,642.451171875,644.1641235351562,645.9732055664062,642.949951171875,644.2474975585938,644.5659790039062,644.4417724609375,643.9625244140625,642.167724609375,640.2151489257812,639.9168090820312,640.893798828125,641.4666748046875,641.65869140625,640.9905395507812,639.5452270507812,638.9070434570312,636.8136596679688,633.6242065429688,636.9342651367188,633.802001953125,636.0352783203125,635.7820434570312,636.5847778320312,636.414306640625,638.031494140625,637.3714599609375,637.6964721679688,640.0350952148438,639.849853515625,640.2666015625,640.8506469726562,642.2115478515625,642.9716186523438,638.51806640625,644.8282470703125,643.9014892578125,642.3663330078125,648.7034301757812,651.3104858398438,651.04736328125,650.6264038085938,649.6810913085938,652.5421752929688,651.9990844726562,654.8491821289062,653.8052368164062,649.3079223632812,651.1785888671875,650.8536376953125,649.5479736328125,653.2944946289062,721.74567,722.7038600000001,721.5052000000001,721.3522,720.3452,720.25964,718.98865,718.46295,717.60016,717.0776,716.42377,716.5261,715.6103,715.7396,714.0747999999999,714.16425,715.1444000000001,715.08154,714.24396,713.3173,713.09436,713.05054,712.57666,712.65985,712.4606,711.66327,712.0677,711.8282,711.87726,710.53876,711.1336,710.5883,710.6569,710.8522,710.2354,710.72577,710.56177,709.9192,710.2772,710.4026,709.99725,709.7603000000001,710.9635000000001,709.9303599999998,710.29767,710.27234
643.4410400390625,646.5015869140625,642.5458984375,643.7897338867188,644.919677734375,643.8777465820312,643.0501708984375,643.6497192382812,642.679931640625,642.8082275390625,641.7864990234375,641.3914794921875,641.7310791015625,639.3556518554688,639.53759765625,640.1949462890625,640.6038818359375,637.4500732421875,638.3717651367188,637.387451171875,636.4114990234375,635.07421875,634.8759765625,635.7730712890625,634.956787109375,635.955322265625,634.7943725585938,636.8799438476562,636.6472778320312,636.6107788085938,642.0797729492188,644.07763671875,641.5430908203125,643.0224609375,643.7418212890625,645.1307373046875,644.078857421875,643.8817138671875,643.8150634765625,645.2586669921875,648.69287109375,647.4859008789062,649.2891235351562,649.2866821289062,649.9185180664062,652.1195068359375,654.3997802734375,654.2699584960938,653.0291748046875,648.0288696289062,648.5245971679688,646.987548828125,650.1966552734375,647.2718505859375,721.8743,721.43665,720.5591400000001,720.2527,719.6806000000001,718.80646,718.25214,717.2459000000001,715.6613,716.59106,715.43567,715.1877,715.4518,714.35626,714.4737499999999,713.55774,712.7103,713.4369000000002,712.748,712.9470000000001,712.1052,711.9061,711.7161999999998,712.7612999999999,711.9927,711.5386,711.0397,711.0175000000002,710.6632,711.34143,709.9502,709.7920999999999,709.76605,709.80255,709.80975,709.6864,709.4336,709.5871,709.42175,709.55426,709.43365,709.5223999999998,709.4671,709.402,709.5973000000001,709.48267
645.7825927734375,647.1444702148438,643.7639770507812,644.4720458984375,645.6891479492188,644.7468872070312,643.3645629882812,642.3449096679688,641.9536743164062,642.3878173828125,640.5580444335938,640.730712890625,640.8389892578125,637.5537719726562,639.7745361328125,638.37646484375,638.4459228515625,638.431640625,638.657958984375,636.1325073242188,639.1071166992188,638.8442993164062,634.7944946289062,631.0113525390625,630.47314453125,632.3176879882812,635.0853271484375,635.5810546875,635.9063110351562,635.6246337890625,641.14013671875,641.8811645507812,639.9036254882812,645.313232421875,645.3744506835938,644.9609375,643.8343505859375,643.5653686523438,646.5142211914062,646.83984375,648.2874755859375,647.2536010742188,648.1127319335938,648.6611938476562,649.6390380859375,649.9576416015625,655.2904663085938,653.9326171875,648.7770385742188,647.3765258789062,647.6467895507812,648.744384765625,653.4511108398438,650.8939819335938,650.0056762695312,719.6062,719.1768,720.0428999999999,719.2517,718.5080600000001,716.7683,716.5574300000001,715.83923,714.82117,714.6233,715.01855,713.4643,713.55945,713.7388999999998,713.4622,712.23584,712.94525,713.36993,712.02423,711.40283,711.735,710.94586,710.95013,710.6210999999998,710.2071,710.3574000000001,710.49695,709.9124,709.4025,709.373,709.1798,708.5364,709.4338400000001,709.28485,708.4415,708.6629,708.7809400000001,707.87115,709.1607999999999,708.8009,708.6085,708.9475,708.9839,709.0642,708.97974
648.7771606445312,647.709228515625,646.0491333007812,646.4820556640625,647.4302368164062,646.1542358398438,643.692138671875,641.8353271484375,640.9204711914062,642.2367553710938,640.630615234375,639.2012329101562,638.6538696289062,644.2254028320312,644.0667114257812,640.9285888671875,637.1985473632812,637.095703125,637.2513427734375,637.5044555664062,636.868896484375,637.9913940429688,636.7244873046875,634.4191284179688,635.5352783203125,638.210693359375,637.119873046875,635.3373413085938,637.2625732421875,638.8388061523438,637.5626220703125,640.49658203125,643.6929931640625,644.117431640625,644.1123046875,644.1964721679688,644.7269897460938,644.7842407226562,647.0426635742188,647.5226440429688,648.178466796875,647.720947265625,648.1856689453125,648.3466796875,650.0507202148438,649.9647827148438,650.9555053710938,647.84130859375,648.0311279296875,648.7406616210938,652.659912109375,653.1469116210938,653.405517578125,651.8651123046875,650.5762329101562,651.5203857421875,719.61194,718.1230500000001,718.213,716.54,716.8917,715.65295,714.93585,713.7635,714.223,714.017,713.322,713.26764,711.9158,711.7161999999998,711.9187999999999,711.9542,711.0742,711.1516,710.40125,710.3462,709.6371999999999,710.4865,709.9239,709.7045,709.6788300000001,709.699,709.3664,708.5141999999998,708.35913,709.4311500000001,708.8067,707.95184,707.9673,709.0549,709.3982,707.67566,707.65063,708.4335999999998,707.9863,707.6640599999998,707.74426,707.9371000000001,707.8357,707.97845
651.9282836914062,650.5426635742188,649.0804443359375,649.2644653320312,648.5010986328125,647.4749145507812,644.9844970703125,641.651611328125,638.394287109375,641.4227905273438,640.03125,638.0326538085938,638.9986572265625,640.6058349609375,639.1009521484375,638.3123779296875,637.8271484375,636.3563842773438,636.1323852539062,635.9265747070312,634.407958984375,634.5562744140625,634.0188598632812,636.5345458984375,636.362548828125,639.5509033203125,638.435791015625,639.0322265625,639.3228759765625,641.5205078125,639.7927856445312,640.5037231445312,641.3775634765625,643.2301635742188,643.7874145507812,643.3738403320312,644.144287109375,644.9757080078125,646.73876953125,647.793701171875,647.4706420898438,647.7189331054688,647.6444702148438,649.3480834960938,650.22314453125,651.2576293945312,652.4931640625,650.5988159179688,648.7649536132812,651.0227661132812,651.731689453125,653.4619140625,652.2194213867188,652.7503662109375,652.016845703125,650.5562133789062,649.1437377929688,716.9212600000001,717.73376,716.092,716.2216,714.7754499999999,714.3866,714.2972399999999,712.83734,713.2938,712.7755,712.1164999999999,712.2830999999999,711.7865,711.5921000000001,711.60474,711.15045,710.1703499999999,710.0681,710.0176,709.93024,709.67224,709.22955,709.4476,709.0434600000001,709.238,708.82697,708.7481,708.8156000000001,707.8112999999998,707.8403000000001,707.9445,707.4982,707.49976,707.61053,707.7342,707.03204,707.4242000000002,707.27783,707.751,706.9075,706.9998,707.2781,707.1758
650.5789794921875,653.0286865234375,651.5755004882812,650.1289672851562,648.4244995117188,646.4893798828125,644.8055419921875,642.3857421875,641.682861328125,640.2755126953125,641.044189453125,639.4290771484375,639.1105346679688,638.61083984375,637.8860473632812,637.6600341796875,636.6738891601562,635.4859008789062,635.2024536132812,635.3477172851562,634.6137084960938,633.3258666992188,633.8056640625,633.9397583007812,634.4200439453125,633.9274291992188,634.9329833984375,636.9402465820312,636.9588623046875,636.9588623046875,640.7958984375,640.5245971679688,639.6563720703125,640.0382080078125,641.7080078125,642.2207641601562,643.6875,644.7724609375,645.927490234375,646.0767822265625,645.8038940429688,646.3331909179688,648.1171264648438,650.5421142578125,650.2565307617188,651.141357421875,652.5181274414062,653.7376708984375,653.1466674804688,654.4575805664062,654.4181518554688,653.7147827148438,652.9913940429688,653.2262573242188,652.302001953125,649.7012329101562,648.4856567382812,651.0309448242188,716.50616,715.3161,714.6065999999998,713.5213999999999,713.5081,713.0643299999999,712.5063,711.6089999999999,711.84937,712.1290999999999,710.7382,710.58875,710.8213,710.43335,710.6415,709.7619,709.7062,709.4755,709.174,708.9595299999999,708.5654999999999,707.26154,708.52216,708.47125,707.8082,707.6538,707.40295,706.96344,707.8769,707.30615,706.81964,706.8668,706.2836,705.5249000000001,705.8140000000001,706.7929000000001,706.468,706.7648299999998,705.8497,706.009,706.5862400000001,706.8616
648.8832397460938,653.9724731445312,649.6575927734375,646.1197509765625,646.7545776367188,644.7451171875,641.7533569335938,640.5648803710938,641.0553588867188,640.693115234375,640.3112182617188,639.3040161132812,638.4545288085938,637.8033447265625,637.7169799804688,636.8013916015625,635.2139282226562,635.0185546875,634.302734375,634.7919921875,633.79833984375,632.7393798828125,633.5525512695312,633.2734375,633.8374633789062,633.8567504882812,634.383056640625,635.8613891601562,635.59814453125,635.8695678710938,635.4769897460938,639.9258422851562,640.003173828125,640.069580078125,641.0078125,642.1612548828125,643.251708984375,644.54052734375,644.0604858398438,643.5414428710938,647.0804443359375,646.2418823242188,647.9408569335938,650.3134155273438,652.8231811523438,654.9772338867188,652.6427612304688,653.1530151367188,653.7261962890625,654.1724243164062,654.0980834960938,653.4967651367188,652.6357421875,651.759033203125,650.47802734375,648.5556640625,646.8063354492188,647.76220703125,647.2945556640625,714.9459,713.9122299999999,713.4332,712.4267599999998,712.24896,712.2475,711.7481,710.7698,711.1485600000001,710.34265,710.2093,709.9485500000001,709.8048,709.9555,708.99115,709.0533,708.7038,709.3742,708.8686,708.1066,707.1368,707.6089,707.53015,707.07715,707.05133,706.4383,706.54266,706.386,705.8104000000001,706.1262999999999,705.64667,706.30115,706.0332,705.9738,705.53406,705.4544,705.33856,705.9249,705.13214,705.6779,706.0420999999999
650.4138793945312,650.2767944335938,647.814697265625,646.4982299804688,646.4754638671875,644.1591796875,642.725830078125,641.0755004882812,640.42041015625,640.2645874023438,639.3473510742188,638.1962890625,637.5242309570312,637.1873779296875,636.97021484375,635.9772338867188,634.4965209960938,634.939208984375,633.3480834960938,633.3904418945312,632.2244873046875,632.3389892578125,632.999267578125,632.4866943359375,632.8811645507812,633.5294799804688,634.2547607421875,634.7760009765625,634.7190551757812,635.4669799804688,636.381103515625,637.9498901367188,639.6555786132812,641.4376220703125,642.6577758789062,642.8150024414062,644.0879516601562,644.8345947265625,645.5925903320312,647.3207397460938,648.0979614257812,646.7355346679688,649.5242919921875,649.978515625,652.2572021484375,656.5435791015625,654.7574462890625,655.0126953125,654.6614379882812,654.155029296875,653.7242431640625,653.314453125,651.6588134765625,650.362548828125,648.6165161132812,646.9039916992188,645.8799438476562,644.948974609375,646.5131225585938,647.1580810546875,714.32043,712.97894,711.9299,711.8249000000001,710.57477,711.1032,710.4102,710.3037,709.9433,709.8305,709.518,709.2667,708.2791,708.08295,708.5220300000001,708.7666,707.9577,708.72473,707.3344,706.1366599999999,707.0196999999998,707.06683,705.4313,706.0123999999998,705.20123,705.1716999999999,704.8608,705.47034,705.5045,705.2071,705.59174,704.60095,704.4727,705.019,704.5065999999999,704.9163,705.37036,705.2052000000001,704.83167,704.6716000000001
651.0623779296875,650.5582275390625,648.366943359375,647.0353393554688,646.2280883789062,644.0975952148438,642.614501953125,641.1551513671875,639.3807373046875,639.2388305664062,638.527587890625,637.3890991210938,636.60546875,636.3656005859375,635.884765625,634.89208984375,634.0737915039062,634.009033203125,632.4573364257812,632.3658447265625,631.3613891601562,632.2883911132812,632.6887817382812,631.8137817382812,632.5450439453125,632.5551147460938,633.52392578125,633.3877563476562,634.48876953125,634.67724609375,636.542236328125,637.6484375,638.6307373046875,641.2168579101562,642.2078247070312,642.6326293945312,644.0390625,646.25244140625,648.6956787109375,648.60595703125,648.909423828125,650.031982421875,651.9490356445312,652.7421264648438,655.4299926757812,655.0433959960938,654.6837158203125,652.9981079101562,652.8312377929688,648.6021118164062,654.3460693359375,654.0152587890625,653.4779052734375,651.6329345703125,649.6800537109375,647.5916748046875,646.4054565429688,645.4739379882812,646.9306640625,646.6629638671875,712.4612,712.21857,710.68353,711.4263,710.28094,710.3984,709.75134,710.00385,709.4124,707.74884,709.0677,708.1766,707.4474499999999,706.5952,707.32935,707.0038,706.9033,707.19196,706.2354,705.6991600000001,706.4102,706.0152,705.81573,705.58215,704.77106,704.1948,704.84937,705.3647,704.4283,704.1624,703.89374,703.6828,704.1981,704.42316,704.50775,704.3300999999999,704.7728,704.4386,704.09094,703.9659
652.2471923828125,650.5639038085938,648.5347290039062,646.9918823242188,645.9174194335938,644.17138671875,641.8969116210938,640.2673950195312,639.4251708984375,638.2282104492188,637.425048828125,636.4953002929688,635.7755126953125,635.1864013671875,634.4654541015625,633.5878295898438,633.1263427734375,632.6832885742188,631.778076171875,631.6119384765625,631.3997192382812,631.9873657226562,631.5805053710938,631.6326904296875,632.070068359375,631.2993774414062,632.8799438476562,633.41357421875,633.9486694335938,634.3406372070312,636.8212890625,636.9652709960938,638.71533203125,641.35791015625,642.2484741210938,642.301513671875,644.2196655273438,644.7908325195312,644.57958984375,647.104248046875,648.5172729492188,649.89404296875,650.7943725585938,647.9841918945312,653.4603271484375,651.9472045898438,649.8035888671875,648.3375854492188,646.9383544921875,645.9796142578125,645.6046142578125,644.2706298828125,651.0513916015625,648.4390258789062,647.8269653320312,645.3514404296875,645.1768188476562,644.8399047851562,642.5068359375,641.7607421875,644.1427001953125,712.1473000000001,710.87067,710.4975,709.5124,709.7558000000001,708.82806,708.95917,708.6733000000002,708.54376,707.58105,708.2703000000001,706.9839,706.4375,705.9389999999999,706.6016,705.4966,706.8416,705.17566,705.9364600000001,704.8726999999999,705.69275,705.46826,704.31006,703.7341000000001,704.01263,703.87384,704.1235,703.998,704.19867,703.3476,703.888,703.9007000000001,703.2563,703.97565,704.20715,703.45197,703.8143,704.1742,703.1316000000002
652.286376953125,650.0043334960938,648.7023315429688,646.3204345703125,645.3668823242188,643.524658203125,641.5382690429688,640.0368041992188,638.7477416992188,636.9369506835938,635.8856811523438,635.5555419921875,634.648681640625,634.0097045898438,633.5022583007812,632.7845458984375,632.3064575195312,631.9567260742188,631.12353515625,630.8428344726562,630.7244873046875,630.937255859375,630.830810546875,631.2280883789062,631.1647338867188,630.7799682617188,631.9520874023438,632.9705810546875,633.3457641601562,633.8026123046875,636.2877197265625,636.5308227539062,638.1600952148438,641.2346801757812,641.6470336914062,642.3102416992188,643.737548828125,645.1505126953125,646.541015625,648.6067504882812,649.9236450195312,650.4536743164062,652.6107788085938,652.841064453125,652.854736328125,651.1654663085938,650.6101684570312,648.79736328125,647.6871337890625,646.6895751953125,645.7402954101562,643.6097412109375,643.7153930664062,646.9468994140625,646.5882568359375,645.829345703125,645.0130615234375,644.482666015625,645.4256591796875,642.121826171875,643.0089111328125,645.1378173828125,710.3634,710.61273,708.6928,708.6557,709.07404,708.297,707.6008,706.4649,707.309,706.8551,707.0328,705.2389,704.95996,704.9211,705.18274,705.6712,705.4646,703.93805,703.7855,704.67523,704.5714,703.2890599999998,703.5519999999999,702.9835,703.9468999999999,703.85767,703.2511999999999,702.7071,703.0602,701.8055000000002,702.1756,702.97766,702.68164,701.8296499999999,702.9938400000001,702.9463,702.0198,702.5703
649.80517578125,649.9368286132812,648.5018310546875,646.5875244140625,645.2301635742188,643.3648071289062,640.750244140625,639.4840698242188,637.3623657226562,636.2808837890625,634.7033081054688,634.610595703125,633.9844360351562,633.1029052734375,632.4463500976562,631.9474487304688,631.6087036132812,631.1534423828125,630.5089111328125,629.9855346679688,629.5377807617188,629.774658203125,630.1168212890625,630.6945190429688,630.1776123046875,630.5313720703125,631.0230102539062,631.717529296875,632.4738159179688,633.1688842773438,635.693603515625,636.2557983398438,637.55126953125,640.4540405273438,641.201904296875,641.8295288085938,643.7335815429688,645.0690307617188,651.0599975585938,650.6092529296875,651.90185546875,649.68896484375,652.2379760742188,720.6275600000001,721.29034,719.33374,719.0624,650.1376342773438,650.1539916992188,649.3652954101562,647.0308837890625,644.0479736328125,643.4522094726562,644.4893798828125,645.4878540039062,646.3720092773438,644.7169189453125,643.8475952148438,642.3692016601562,642.91455078125,645.2122192382812,644.7299194335938,710.3752,709.0391999999999,709.841,709.1616999999999,708.0899999999999,707.6035,707.6829,706.5869,706.7796,705.9286,706.33545,705.2154,705.2239,704.89966,704.0571,704.7623999999998,704.2474,703.11005,704.2347,704.63635,703.86176,703.0956000000001,702.4012500000001,702.66205,702.8886,702.67786,702.28876,702.169,702.1206,701.9365,701.6203,702.4267,703.3778,702.8267,702.13464,701.65436,701.9522,702.237
650.9481201171875,649.8612670898438,648.4132080078125,646.0821533203125,644.5687866210938,642.8470458984375,639.7982788085938,638.425048828125,636.85107421875,635.31591796875,633.8123168945312,633.392822265625,633.0680541992188,632.1085205078125,630.9236450195312,630.4554443359375,630.6189575195312,629.8786010742188,629.5114135742188,629.0938110351562,628.63134765625,628.8123168945312,629.1316528320312,629.5599365234375,629.4697265625,629.4724731445312,630.1716918945312,631.0838012695312,631.6119384765625,632.691650390625,634.800537109375,636.0540771484375,637.1707763671875,639.6199340820312,640.88037109375,642.1127319335938,643.5314331054688,645.2116088867188,650.8754272460938,651.0778198242188,652.8541259765625,655.3951416015625,721.28253,720.6165,720.3778,719.3766500000002,718.24506,717.4798,648.436279296875,652.1087036132812,649.6555786132812,648.6759033203125,648.6824340820312,645.94140625,645.0984497070312,644.5232543945312,646.8518676757812,645.6219482421875,646.0579833984375,644.852294921875,645.4971923828125,710.4165,709.30756,708.6958,707.84,709.2049,707.3231,706.70966,706.1556,705.8556999999998,706.4486999999999,705.4067399999999,705.0448,703.9575,703.60815,703.7652,703.95105,704.1578400000001,703.5238000000002,702.7753,704.17816,703.2256,702.54865,702.3726,701.57465,702.1892,701.739,702.3112000000001,701.6988000000001,701.1451,702.1335999999999,701.2714,700.6921,702.06323,701.0594000000001,701.3092,701.6747399999999,702.0372,700.9652,700.81006
650.2503051757812,649.66552734375,647.7611083984375,644.844482421875,643.3189697265625,642.2677001953125,638.3496704101562,637.1773681640625,635.559326171875,634.5118408203125,633.069580078125,632.2939453125,631.5964965820312,631.0103149414062,629.9168090820312,629.2799072265625,629.614013671875,628.9091796875,628.4684448242188,628.1220092773438,628.0865478515625,628.0578002929688,628.2996826171875,628.3973999023438,628.5965576171875,629.0090942382812,629.2684936523438,630.2977905273438,630.0534057617188,631.9708862304688,633.3240356445312,634.7075805664062,636.1881713867188,638.8425903320312,640.75830078125,642.0308227539062,643.6788940429688,645.5383911132812,651.9237060546875,652.6414794921875,653.99755859375,721.76965,720.72943,720.11804,719.45984,718.078,717.1961,716.60474,716.47516,647.466064453125,647.8086547851562,647.3854370117188,647.4293212890625,645.5347290039062,647.6328735351562,647.5746459960938,649.4469604492188,644.1598510742188,646.6504516601562,710.5328399999999,710.1529,709.51044,707.8461,707.65753,707.57404,707.6597000000002,706.32806,706.2573,705.80115,704.6200999999999,705.09735,705.1734,704.5673,704.0357,703.5024,703.20795,703.9348,704.0783999999999,703.1453999999999,702.0369,703.1959,702.2128,702.092,702.13104,701.748,701.1599,701.47943,701.8046000000002,701.3298,700.81915,701.0935,700.8878,700.5499,701.4964,700.93085,700.6521,701.23694,700.75684,699.9775,700.8932500000001
649.3556518554688,648.8829956054688,647.3239135742188,644.215576171875,643.2584838867188,640.5614013671875,637.9800415039062,636.34423828125,634.084716796875,633.339111328125,632.01123046875,631.3784790039062,630.4686279296875,629.7747802734375,629.3154296875,628.682861328125,626.8884887695312,627.4970092773438,627.769287109375,627.5800170898438,626.8374633789062,627.4254150390625,627.7161254882812,627.0142211914062,626.8912963867188,627.9887084960938,628.3032836914062,629.1546630859375,629.2989501953125,630.59130859375,632.2452392578125,633.7884521484375,635.6273803710938,639.1290893554688,640.0691528320312,641.5460205078125,643.5130615234375,644.7191772460938,648.3634643554688,651.0694580078125,721.0222999999999,720.92633,720.2368,718.9070000000002,718.2304999999999,717.9654,716.72003,716.9493,716.2307,715.3106,714.5595000000001,650.2373046875,646.8342895507812,645.44921875,645.1091918945312,646.1385498046875,647.5301513671875,646.3938598632812,710.58545,710.304,709.5653,708.7091699999999,707.2874,707.48926,706.7867,707.32776,705.9129,705.4540399999998,705.6059600000001,704.8573999999999,705.11615,705.10516,704.0867000000001,703.275,702.8549,703.1804,702.8459499999999,702.2459000000001,702.6051,702.4274,701.63104,702.6422,701.2909,700.7057499999999,700.7167400000001,701.163,701.54877,700.88367,700.4565,700.32965,699.583,699.5382,700.10095,699.86945,699.4678999999999,700.5055,700.24866,700.398,699.7036,700.4347
649.0813598632812,648.6561279296875,645.52392578125,642.9302368164062,642.7957153320312,639.889404296875,636.9649047851562,634.718505859375,632.6137084960938,631.7554931640625,630.625,629.9349975585938,629.3804321289062,628.4240112304688,627.71728515625,627.1658935546875,625.738037109375,626.0452270507812,625.7027587890625,626.3013305664062,626.2948608398438,625.9136962890625,626.4950561523438,624.9824829101562,625.9763793945312,625.6104736328125,627.7202758789062,627.9080810546875,628.4810180664062,629.8342895507812,630.9703369140625,632.14404296875,632.0433959960938,638.7048950195312,640.0869750976562,641.009765625,643.546875,645.652587890625,646.9086303710938,649.813720703125,720.8025499999999,720.2639,719.20703,717.3697,718.05396,716.613,716.1063,715.59937,715.20624,714.5664,714.5732399999999,713.02673,713.10077,646.765625,645.926513671875,646.1085205078125,646.5995483398438,646.1822509765625,710.0471,709.2646,709.2563,707.104,706.67236,706.66974,706.0551,706.0956999999999,705.9455,704.4402,704.7251,704.21643,704.22504,703.6159,702.79156,703.0629999999999,702.47546,702.2283300000001,702.22375,702.5942399999999,702.41766,701.8417999999999,701.37286,700.6606999999999,700.9112500000001,700.1554,700.54126,700.28467,700.0836000000002,700.63184,699.3057999999999,699.7054,699.3758,698.5078,700.0651,700.63403,699.6652,699.8643,699.9005,698.8885,699.01154,699.7860000000001
649.55029296875,647.815185546875,643.7903442382812,642.5847778320312,639.9318237304688,636.8078002929688,633.7661743164062,633.859130859375,632.21923828125,630.631591796875,629.359619140625,627.7372436523438,628.6815185546875,626.9150390625,626.1048583984375,625.2877807617188,624.9972534179688,624.9335327148438,624.5988159179688,625.0702514648438,625.0407104492188,625.0771484375,624.6524047851562,624.5209350585938,622.97509765625,624.9293212890625,625.8921508789062,625.76123046875,626.8733520507812,628.0401000976562,628.4572143554688,630.9909057617188,631.5877075195312,637.3992919921875,640.2923583984375,640.7174072265625,641.6906127929688,646.3425903320312,647.3090209960938,648.8336791992188,719.5319,719.4597,717.8618,717.86316,717.0055,716.779,715.75946,715.0318,715.2455,714.1926,713.76324,712.97485,713.1010000000001,712.2856,646.5457763671875,647.2617797851562,646.5970458984375,646.0877075195312,709.23456,707.5077999999999,707.9278999999999,707.8834,706.8306,705.8833,704.6727,704.9059,704.5599400000001,703.75446,704.0499,703.2493,703.51044,702.1709,702.1402,701.7626,702.14996,701.96796,701.77167,701.1414,700.37573,701.08075,700.48755,700.80414,700.2961,700.08594,699.7814,699.91943,699.46893,699.4452,699.21783,699.0897,698.9075,697.9511,698.57074,698.90424,699.07764,698.6449,697.96826,698.02795,698.3752400000001,698.2039
648.7681884765625,646.024658203125,643.451171875,641.54931640625,637.7581176757812,636.767333984375,634.4797973632812,633.0845336914062,631.6991577148438,630.2740478515625,628.4365234375,627.0307006835938,627.8351440429688,626.267578125,625.164794921875,624.2639770507812,624.2052001953125,624.1370849609375,623.3024291992188,623.9986572265625,624.362060546875,623.9207153320312,623.7470703125,623.8455810546875,623.2080078125,624.0535278320312,624.670166015625,624.6614379882812,625.7785034179688,626.7330932617188,627.33349609375,629.7774658203125,630.32568359375,634.3167114257812,639.1722412109375,638.5733032226562,642.516357421875,646.5463256835938,648.6856079101562,649.1618041992188,719.6837,718.59235,717.9961000000001,716.92816,717.0090300000002,715.72815,715.8151,714.7450000000001,714.2158,713.2608600000001,711.4563,712.7333999999998,711.9777,711.14075,710.62354,646.6282348632812,647.4157104492188,646.9861450195312,708.62994,708.3933,707.6848,706.9640000000002,705.4756499999999,704.9041,704.6835999999998,705.34894,704.2080699999999,703.23645,703.9616,702.57587,703.0051000000001,701.9973,702.3177,701.7447,701.1953,701.24194,701.6084,700.7245,699.8856,699.7951,700.2452,700.4847,699.142,698.84924,698.5436,698.2567,699.4059400000001,698.92004,698.2853,698.7086999999999,697.83734,698.3020999999999,698.00964,698.9215,698.3771,697.6254,697.8031,697.6959999999999,698.0271600000001,698.4734000000001
647.9385986328125,644.792236328125,642.1477661132812,639.8018188476562,636.5341186523438,635.969482421875,633.3894653320312,632.5866088867188,630.354736328125,629.757568359375,627.7918701171875,626.9304809570312,626.711669921875,625.5792236328125,624.6661376953125,624.4485473632812,624.2661743164062,622.8157958984375,623.6319580078125,622.9878540039062,623.4118041992188,623.0066528320312,623.0631103515625,623.33251953125,622.8175659179688,623.5723876953125,623.5520629882812,624.3905639648438,625.5247192382812,625.6267700195312,626.5140380859375,628.4339599609375,628.9161987304688,633.48876953125,636.7249755859375,638.0224609375,641.634521484375,644.3865966796875,648.2730102539062,650.3089599609375,653.197265625,718.57056,717.34784,716.42584,716.4364,715.1883,713.87744,714.15594,712.5849,712.5298,711.7481699999998,711.2853,711.5549999999998,710.7549,710.39886,709.55914,709.1582,709.05457,708.1236,706.46594,706.4594,705.0302999999999,705.13696,704.52216,704.183,704.18164,703.0412,703.6057,702.7533,702.04663,702.3305,701.66003,701.2666,701.5564,701.4725,699.97974,699.99506,700.6473,700.27277,699.9222399999999,700.32745,699.4486,698.3979,697.9603,697.90845,697.9411,698.36456,697.48395,697.2909,698.535,697.9404,696.80115,696.97473,697.635,697.76636,697.7984000000001,697.1684600000001,697.37573,697.7356,696.9184
646.9151000976562,644.0059204101562,641.357666015625,638.387939453125,635.713623046875,633.9964599609375,631.875732421875,631.399169921875,629.0785522460938,628.4318237304688,626.7847290039062,625.9246826171875,624.9651489257812,624.3004150390625,623.0176391601562,622.7767333984375,622.376953125,620.0672607421875,621.3765258789062,619.8782958984375,620.9398193359375,620.6951293945312,621.5034790039062,622.33251953125,622.25048828125,622.20947265625,622.4223022460938,622.7518920898438,624.0348510742188,624.7457275390625,625.1510009765625,627.941162109375,628.9132690429688,631.9143676757812,635.68701171875,638.4041137695312,640.4405517578125,642.7562866210938,647.2520141601562,650.4305419921875,653.3832397460938,717.52325,716.44965,715.68036,715.256,714.9385,714.5394,713.423,712.6163299999998,712.6984,711.7879,710.9648400000001,711.0735999999999,710.7730000000001,709.5715,709.2348,708.3669399999999,708.5479,707.2574,706.98895,705.1728,705.0865999999999,704.4623,703.3786599999999,703.9655,703.34436,702.2321999999999,702.7737,701.944,701.4917,701.5886,701.70276,701.3308,699.90027,700.5034,699.55133,699.54224,699.3995,699.3616,698.352,699.66284,698.42706,698.177,698.3119999999999,697.25885,696.9451000000001,697.9556,698.0827,697.3369,697.6038,696.5555,696.90515,697.01556,696.8053,697.5256,696.684,696.9876999999999,696.58325,696.61975,696.5069600000002
646.1151123046875,643.3494873046875,640.5040283203125,636.44775390625,633.923828125,631.4046630859375,630.498291015625,629.3585815429688,628.0072021484375,627.2623291015625,625.9312744140625,625.0806884765625,624.4000244140625,623.6408081054688,622.531005859375,622.4036254882812,621.1116943359375,620.134521484375,620.9107055664062,620.2472534179688,620.9345092773438,620.9656372070312,621.800537109375,621.6189575195312,621.46484375,622.2488403320312,621.7542724609375,622.00537109375,622.3419799804688,623.7277221679688,624.2963256835938,626.7140502929688,626.5136108398438,629.5383911132812,633.3876342773438,637.8930053710938,639.59375,641.7021484375,645.3766479492188,649.488037109375,652.9684448242188,715.7004,715.5271600000001,714.5162,714.55426,714.35095,713.7901999999999,712.09796,711.41187,711.88,711.2144,710.7429,710.38275,709.8399,709.20483,708.3547,708.0898,707.76404,706.943,705.9204,705.4025,705.1853,704.3323399999999,703.96,703.3128,703.2042,702.0336,701.4547,701.35126,700.69586,700.9884,700.97955,699.442,700.0462600000001,699.2548999999999,698.9466600000001,699.1454999999999,698.274,699.0569500000001,697.66174,698.12994,698.5362499999999,697.85834,696.8003999999999,697.18823,695.6872599999999,697.0608500000001,696.7793,696.79694,696.3498500000001,696.3077,696.35065,696.2131,696.31464,697.2547,696.17303,697.3515,696.3966,695.7657,695.85004
644.4115600585938,642.4351196289062,640.560302734375,636.7598266601562,635.015380859375,632.1746826171875,630.688232421875,629.2783203125,627.6343994140625,627.3270263671875,625.8634643554688,624.9854125976562,624.4403076171875,623.361328125,623.3659057617188,623.5185546875,619.9824829101562,619.77099609375,621.2117919921875,621.42919921875,621.5835571289062,620.7791137695312,622.0718994140625,619.966064453125,622.1614990234375,621.3360595703125,620.6954345703125,621.8458251953125,622.5145263671875,623.1417846679688,624.5157470703125,625.2081909179688,625.0887451171875,628.2130126953125,631.14111328125,636.3665771484375,638.3735961914062,640.7376098632812,644.1491088867188,647.5120239257812,651.4590454101562,716.01306,716.3486,714.19525,714.17896,713.5818,712.57495,712.5359000000001,711.4444000000001,711.1975,710.57526,709.8573,709.4633999999999,709.489,707.8857400000002,707.76166,707.1241499999999,706.7704000000001,705.62787,704.8113,705.3021,703.66986,703.6248,702.89905,702.54,702.2781,701.2878,701.57556,700.48315,700.7322999999999,700.06915,699.7828400000001,699.81,699.4963,698.54175,698.58167,698.7586699999999,698.38116,698.0137,697.67957,697.70105,697.4861,696.90814,696.82104,696.36884,696.6318,696.0857,696.2543,696.0105,695.7508,695.1142,695.4483600000001,695.6471,694.5594,695.9369000000002,695.3735,695.1988,694.95996,695.0959,694.8004000000001
645.0572509765625,643.4100341796875,642.2180786132812,638.51416015625,634.47900390625,632.1837768554688,630.5388793945312,629.4263916015625,627.3087158203125,627.16650390625,625.7482299804688,625.1746215820312,624.1351318359375,623.3524780273438,622.6909790039062,622.2009887695312,618.740234375,619.583984375,620.0637817382812,621.0824584960938,621.6441040039062,621.3081665039062,621.8910522460938,619.9757080078125,621.8929443359375,620.9061279296875,620.3140258789062,621.4193115234375,622.2736206054688,623.1220092773438,623.9000854492188,625.0508422851562,626.0062866210938,627.582275390625,632.0176391601562,636.1647338867188,638.1869506835938,640.4371337890625,643.2622680664062,647.489013671875,649.7985229492188,715.48566,714.82983,714.4496000000001,713.2666,712.24756,711.73425,711.503,710.73627,710.7758,710.8214,709.11884,709.47876,708.80383,707.646,707.9785000000002,706.5735,705.7621,705.8133,704.7986000000001,704.7757,703.6701700000001,702.9166,701.96747,701.8024,701.4395,701.1866,701.0704,700.04565,700.43634,699.73315,699.2687,699.51074,698.9965,698.3616,698.1914,698.0843,697.69366,697.604,696.6787999999999,697.31195,696.99615,696.575,696.4252,696.501,695.70264,696.6913999999999,695.4609400000002,695.2421000000002,695.09357,695.02515,694.9622999999999,694.8323400000002,695.2584,694.8371,694.777,694.5835999999999,694.674,695.1135,694.9451999999999
644.3644409179688,643.93603515625,642.687255859375,637.9030151367188,634.49609375,631.90185546875,629.9740600585938,628.214599609375,627.4182739257812,626.1361083984375,624.57861328125,624.5341796875,623.4852905273438,622.3796997070312,620.8016967773438,620.709716796875,618.85693359375,616.9920043945312,618.4527587890625,619.22998046875,620.2744140625,618.924072265625,621.3108520507812,620.523193359375,621.3408813476562,620.8417358398438,620.3335571289062,620.7998657226562,622.3129272460938,622.12939453125,622.221435546875,624.3777465820312,625.9462280273438,627.9397583007812,631.839111328125,635.9463500976562,638.1630249023438,640.9888305664062,645.2863159179688,646.884033203125,648.8872680664062,714.6603,714.1921,713.7966,713.0721,712.5318,711.7575999999999,711.14526,710.5039999999999,710.6264999999999,709.59143,709.3462999999999,709.1525,707.46173,707.64435,706.12354,706.44165,705.1873,705.70386,704.3543999999999,704.3735000000001,702.5115,702.5185,702.32623,700.8272999999999,701.9166,700.8639500000002,700.25104,699.104,699.1786,699.0718000000002,698.1482,698.9781,697.1509000000001,697.2501,697.6502700000001,697.3404,698.066,696.3156000000001,695.9954,697.0026,696.28394,695.1872000000001,695.6883,695.25806,695.05536,695.3458,694.5527,695.09906,695.3135399999999,694.02356,694.12823,694.2129,694.5462,694.9207,694.4083,694.3715,693.9929,693.99164,694.6522
644.3760986328125,642.800048828125,640.3077392578125,637.579345703125,634.0631713867188,631.8098754882812,629.4666748046875,629.2012329101562,627.6875610351562,626.3229370117188,624.7208862304688,624.2314453125,623.0653686523438,621.3106689453125,619.921142578125,617.572265625,618.6305541992188,616.9083251953125,618.8836059570312,620.1361694335938,620.06787109375,619.1536254882812,620.284912109375,620.856201171875,620.1297607421875,621.0088500976562,620.252685546875,619.8441772460938,621.7622680664062,622.7259521484375,622.7763671875,624.1636352539062,625.2852783203125,627.8949584960938,631.4521484375,635.4798583984375,637.1319580078125,639.8883056640625,642.9898071289062,648.0465698242188,650.2005004882812,714.8693000000001,713.82965,713.23773,712.5302999999999,711.90436,711.2445,710.7579,710.34143,709.69867,709.567,708.2019,708.11707,707.72656,706.6656,705.16327,705.55615,705.5897,704.7363,703.98413,703.2140000000002,702.94586,702.5165,701.9351,700.9272999999998,700.965,699.7806,700.18396,698.63904,698.78955,699.5556,698.60254,698.6458,696.5112999999999,696.8027,697.1317,696.2781,696.6333,695.9186,696.62103,694.9673,695.56067,695.19543,694.84357,694.5232,694.6673599999999,694.48254,694.0696,694.0003,694.183,693.9949,693.4576400000001,694.441,693.3342,694.38873,693.7541,692.9867,693.4058,693.6421,694.418
644.9702758789062,642.3954467773438,639.758544921875,637.1473388671875,633.6046142578125,630.9494018554688,629.5407104492188,628.7265625,627.224853515625,626.0596923828125,623.8643798828125,623.8095092773438,622.982666015625,622.5003051757812,620.5625610351562,617.7765502929688,619.431640625,617.5896606445312,620.775390625,619.7351684570312,620.1502685546875,619.5380859375,619.8919067382812,620.4295043945312,620.0739135742188,619.4088134765625,620.3238525390625,620.0513305664062,621.6063232421875,622.5560913085938,622.482666015625,624.1245727539062,625.06689453125,626.668701171875,630.7616577148438,632.3058471679688,635.4219360351562,638.2769165039062,642.9866333007812,648.82763671875,651.7501220703125,713.90674,712.3041,712.0097,711.9756,711.6541,710.9668,710.7815600000001,708.9101600000001,709.39484,708.43994,708.4627,707.19446,707.3187,707.202,705.57465,704.8282,705.24725,703.7914,703.1142,702.60565,701.53094,701.41235,700.294,700.42456,700.34375,699.738,699.0082,698.12787,698.059,698.055,697.0514000000001,697.8634,696.0713,695.9274,695.9977000000001,695.62006,697.0237,695.3037,695.47363,695.14813,695.38763,695.1608,694.50476,694.1547,694.3336,693.9621999999999,694.51855,694.2537,692.9053,693.3072500000001,693.3604,693.2469000000001,692.78955,693.4102,693.7548000000002,692.9778,693.1549,693.38763,693.09845
645.104248046875,641.942626953125,639.744384765625,636.8251953125,634.1064453125,630.6910400390625,629.2421264648438,627.8822021484375,626.9754028320312,625.192626953125,623.9373779296875,623.1776123046875,622.8084716796875,621.991455078125,618.7827758789062,618.8861083984375,619.0590209960938,617.9841918945312,620.3200073242188,619.489501953125,618.7145385742188,619.3312377929688,620.0398559570312,620.3776245117188,619.8140869140625,619.6008911132812,619.3135375976562,620.5274047851562,621.39453125,622.2518920898438,622.3827514648438,624.2905883789062,624.8419799804688,626.36083984375,629.6640625,630.7860717773438,632.1591186523438,636.31201171875,640.8534545898438,648.205078125,714.01605,713.10736,712.56476,711.78143,711.5071,710.92194,710.53424,709.60425,709.2899,707.9427499999999,707.90704,707.1622,706.6502,707.2092,706.4507000000001,705.2781400000001,704.92236,704.317,703.1669999999999,702.7603,702.3077,701.41364,700.39575,700.367,699.8106,698.8425,698.7451999999998,699.1103,698.3925999999999,698.153,698.31586,696.796,696.68536,695.92664,695.92944,695.67316,696.06104,696.0934399999999,695.4798600000001,694.81274,694.51105,694.76324,694.1056000000001,693.4641999999999,694.4552,693.8472,694.1742,693.3522,693.2997,693.3442,693.0458999999998,692.9089999999999,692.8996,692.3332,692.4592,692.8103999999998,693.2556999999999,693.06116,693.0685,692.42633
645.33251953125,642.6458129882812,640.2584228515625,636.9345703125,634.40771484375,630.8137817382812,629.5838012695312,627.3660278320312,626.6491088867188,625.4338989257812,624.6830444335938,622.8333129882812,622.4613037109375,621.3827514648438,620.2727661132812,619.7312622070312,619.4457397460938,618.011962890625,619.2809448242188,617.965576171875,618.1748657226562,619.83056640625,620.392578125,620.8048095703125,620.069580078125,619.7710571289062,619.6575927734375,619.9779052734375,622.0068359375,622.56640625,623.131591796875,624.024169921875,624.6499633789062,627.6840209960938,631.1895751953125,632.2816772460938,632.905517578125,634.3919677734375,640.1941528320312,648.2347412109375,713.9299,713.09125,712.01953,711.65967,711.2809400000001,710.61414,710.7955,709.2534,708.1085,707.7193,707.9184599999999,706.796,705.0944,706.48975,705.1592,704.55554,704.1939,703.53033,702.66974,702.4252,701.7619,700.537,701.16614,700.04407,699.5184,698.5519999999999,698.94995,697.8241,697.7110600000001,697.1317,697.34686,696.73773,696.2793,694.71234,695.24695,695.0167,695.2315,694.03,694.3489,694.9375599999998,695.1415,693.8607,693.8068,693.8951399999999,693.5746,693.0055500000001,692.7369,692.4689,692.8364,693.2012,692.4954,692.3232,692.25256,692.7383,692.8666,692.6684,692.7398700000001,692.7962,691.93317,691.90344
646.0492553710938,643.2144165039062,640.6329345703125,636.6823120117188,634.8408203125,631.8428955078125,630.3814086914062,627.7619018554688,626.8357543945312,625.7732543945312,624.0728149414062,623.2645263671875,622.5230102539062,621.9517211914062,621.3671875,620.1824340820312,619.8383178710938,618.6315307617188,618.8270263671875,617.9973754882812,618.2617797851562,619.8809204101562,620.16552734375,620.4258422851562,619.4986572265625,619.5841674804688,618.8842163085938,620.6737060546875,622.0000610351562,622.5508422851562,622.394287109375,624.53662109375,624.5277099609375,627.8553466796875,631.2697143554688,632.7780151367188,631.7449340820312,634.8482055664062,640.7379760742188,650.3181762695312,712.70135,712.53845,711.54926,711.76776,710.73737,710.52026,709.5367999999999,709.29126,708.5690999999999,707.76685,706.84955,706.495,706.14575,704.9534,705.0472,703.9728,703.2975,703.85535,702.8578,701.63464,700.2497,701.35095,699.37866,699.12366,698.18066,698.77386,697.6817600000002,697.06305,696.3208,696.93164,696.3590999999999,695.59326,695.62134,695.7786999999998,694.5520999999999,694.2716,694.2031,694.422,693.7312,693.06635,694.4827,693.90906,692.4442999999999,693.4595,693.21466,692.2185,692.1558,692.6309000000001,692.36084,691.88214,691.71466,692.19165,691.6682000000001,691.3521000000001,691.6398300000001,691.9068,691.92444,691.7982,691.6967,691.4056
646.0924072265625,643.4081420898438,640.9369506835938,638.0917358398438,634.1796875,631.71533203125,629.808837890625,629.1231689453125,627.1024780273438,626.3900756835938,624.531494140625,623.8517456054688,623.1175537109375,622.2509765625,621.6090698242188,620.1622924804688,620.400146484375,619.2327270507812,619.865966796875,618.2066040039062,620.04931640625,619.5499267578125,620.2779541015625,619.755859375,620.3656616210938,619.5564575195312,618.8345947265625,620.5798950195312,622.8175048828125,622.7637329101562,622.7505493164062,624.6119995117188,625.2538452148438,628.2376708984375,631.0479125976562,631.8431396484375,631.755126953125,634.9476928710938,640.6130981445312,651.2239990234375,712.6187,711.9597,711.791,711.3254,710.3893,709.38556,709.04205,708.4385399999999,708.1595500000001,707.51776,706.156,705.6757,704.8771999999999,704.88763,703.9747,703.3409,702.2689,703.49176,701.89716,701.7469,700.78174,699.59503,699.1704,698.3527000000001,697.98596,697.9247399999999,696.51215,696.6561,695.98846,695.96606,695.6893,695.6915000000001,695.6161,694.7443,694.8667,693.99146,693.5951,694.0204,693.4677999999999,693.6303,693.19617,693.4646599999999,691.8667,692.75574,692.6209,691.3981,692.0361,691.7235,690.9289,692.0812,691.6481999999999,691.9502,691.3724,691.5823,691.177,691.7295,691.2564,691.6830400000001,691.71533,691.7550700000002
647.026611328125,644.1451416015625,641.4954223632812,640.034912109375,635.2786254882812,631.7778930664062,629.5687866210938,629.7083129882812,627.7660522460938,626.7225952148438,624.6464233398438,624.5802612304688,622.9470825195312,622.594482421875,621.7388916015625,621.0614624023438,620.9337158203125,620.0471801757812,619.665771484375,618.8200073242188,619.9173583984375,620.22509765625,620.151123046875,620.85400390625,619.8614501953125,620.8247680664062,620.1238403320312,621.4714965820312,624.6102294921875,623.7451171875,625.3331909179688,625.3282470703125,626.3426513671875,629.7035522460938,631.5216674804688,630.841796875,633.338134765625,637.32421875,647.2164916992188,652.2315063476562,712.2783,711.6679,711.0949,710.39465,710.27576,708.87024,707.5007,707.1224,707.129,706.4781500000001,705.7185,705.0503000000001,705.1345000000001,704.4006,703.7948,703.2905,702.5262,701.6395,701.7318,701.39905,700.2224,699.5954,698.7538,697.8213500000002,697.5705600000001,697.4109,697.3508000000002,695.8135,696.4773,694.61584,696.04034,695.30597,694.62555,694.3215,694.37994,693.4545,693.3803,692.85297,693.4256,692.16156,692.22485,692.5050999999999,692.47473,691.7442,691.4585,691.0521,691.9243,692.16425,691.21344,691.71704,691.3671999999999,691.0947,690.7869,690.97046,690.6392,691.22876,691.57263,690.9966,691.08014,690.5906400000001
647.576904296875,645.22119140625,642.020751953125,640.1858520507812,636.9328002929688,633.9853515625,630.92529296875,630.1792602539062,628.3795776367188,626.8375244140625,625.0582885742188,624.3539428710938,623.0469360351562,622.7962646484375,622.7142944335938,621.5278930664062,621.2359008789062,620.5916748046875,620.8961791992188,620.4722290039062,620.568603515625,620.2311401367188,620.4263916015625,622.4656982421875,620.2124633789062,621.6403198242188,622.4224853515625,622.3778076171875,624.8450317382812,625.550048828125,626.2002563476562,627.1769409179688,628.5671997070312,629.6798095703125,630.9313354492188,630.7021484375,633.266845703125,636.771484375,647.5660400390625,712.4989,711.72974,711.8816000000002,711.0008500000001,710.78064,709.1209000000001,708.3206,708.5209399999999,707.2338,706.7607,706.0021,705.9429,704.9469,704.9456,704.3807400000001,703.2738,702.2758999999999,702.31116,701.7852,701.3677,700.01355,699.7972400000001,698.33374,698.27277,697.74536,697.60095,697.0561499999999,696.72504,696.7521999999999,694.7866,694.462,695.1337,693.7971,693.7586,693.99023,693.05225,692.873,694.364,692.6153999999999,692.7678000000001,692.7764,692.4617,692.28064,691.8746999999998,691.4315,690.8344999999999,691.1205,691.20325,690.798,690.624,690.6281,691.0328400000001,690.276,690.4740000000002,690.39075,691.0078999999998,690.3335,690.482,690.76996,689.9595999999999,690.8867
649.0092163085938,646.314697265625,643.0743408203125,641.20849609375,638.663330078125,635.4706420898438,632.2453002929688,631.1380004882812,629.5101928710938,627.705322265625,626.4180908203125,624.8265380859375,623.8712158203125,623.5067138671875,623.5184326171875,621.4715576171875,622.3223876953125,621.506591796875,621.6431884765625,620.6808471679688,621.4085693359375,621.38671875,621.3424072265625,622.6258544921875,622.15380859375,622.2689208984375,622.897705078125,622.8568115234375,624.6817016601562,626.0477294921875,626.796875,628.0265502929688,630.6679077148438,632.6397705078125,631.8838500976562,631.3890991210938,635.8782348632812,641.65234375,650.50537109375,712.1891500000002,711.49524,711.4606000000001,709.7830999999999,708.9053,709.2557999999999,708.2574999999999,707.6149,706.79865,706.2756,705.61914,704.66943,704.66583,704.1659500000001,703.7423,702.71844,702.6452,701.6211,701.4497,700.88837,700.2962,699.12256,698.47516,697.50696,697.3397,697.3194,695.7372399999999,696.1505,694.4048,695.04034,694.7664,694.71893,694.1616,693.53845,693.2938,692.867,692.27435,692.7488,692.49335,692.67426,691.99274,692.276,691.853,691.2631999999999,691.0249999999999,690.62286,691.2103,690.89154,690.748,690.4909,690.02966,690.3084,690.1639,690.57275,690.4787,690.2674,689.8876,690.32477,690.2356,690.1482999999998,690.0829999999999
650.9360961914062,646.8256225585938,642.5398559570312,642.8195190429688,640.3983154296875,638.3512573242188,633.7757568359375,631.4373168945312,629.9290771484375,628.5275268554688,627.0089111328125,627.0970458984375,625.4271240234375,623.7645263671875,624.5946044921875,621.847900390625,623.2775268554688,622.390625,622.66162109375,621.2381591796875,621.8600463867188,622.2819213867188,622.8922119140625,622.82373046875,622.7772216796875,623.6069946289062,623.1722412109375,623.5943603515625,625.1459350585938,626.1451416015625,627.8649291992188,630.0609741210938,632.3321533203125,632.42431640625,632.5556030273438,635.045166015625,637.372314453125,645.2793579101562,712.4547,711.72284,711.7463399999999,710.8742,709.8579,709.14105,708.9814,707.9645,707.83,706.3881000000001,705.6546000000001,704.8159,705.171,704.9304,704.0932,702.9641000000001,702.0989,701.9341,702.10846,700.9783300000001,700.4971,699.8112000000001,699.2010500000001,698.3663,697.9805999999999,696.5202999999999,696.80273,696.53143,695.616,693.9369,694.223,694.2967999999998,694.5956,693.4715,693.4911,693.43616,692.63055,692.6829,692.2648000000002,692.0866,691.7229599999998,691.4556,691.1513,691.589,690.50244,690.2347399999999,690.34155,690.4922999999999,690.42865,690.28687,690.1071,689.8668,689.4773599999999,689.99786,690.272,689.55414,690.2518,689.68304,689.8019,689.9367,689.80664,689.93964
651.2067260742188,647.406005859375,647.6708984375,643.3321533203125,641.9984130859375,640.2530517578125,638.043212890625,635.7384033203125,631.3793334960938,629.1856079101562,628.2931518554688,627.9022827148438,626.2864379882812,625.7642822265625,625.2703857421875,624.665771484375,624.7239379882812,623.4603881835938,622.6564331054688,622.1068115234375,622.78369140625,622.7571411132812,623.1779174804688,623.8220825195312,623.3673095703125,623.719482421875,624.5474243164062,625.4576416015625,626.3726806640625,627.394287109375,630.440185546875,633.2843017578125,634.0792846679688,633.5360107421875,633.119873046875,638.75146484375,641.7605590820312,649.441162109375,711.98895,710.8752,711.53015,710.7371,709.18134,707.7497,709.04395,707.46875,706.92535,705.8559,705.57416,704.60486,705.0320999999999,703.9663,704.05206,702.89825,701.3277,701.09674,701.19635,699.70703,700.01074,699.34735,698.161,697.3424,696.2851,695.49445,695.9322499999998,695.7964,695.0082399999999,694.57263,693.8612,693.5682399999998,694.0711999999999,693.3471,692.5685,692.9438,691.5747,691.8426,692.0273,691.77637,691.4083,690.6403,691.53314,690.9443,690.45233,690.5123000000001,690.4672,690.37537,690.06793,689.8883,689.82764,689.5745999999999,690.1467,689.1432499999999,689.1252,689.5226,689.4703,689.671,689.5124,689.38226,688.6462,689.4563600000001
651.3750610351562,651.2609252929688,648.1588134765625,647.0697631835938,643.085205078125,642.567138671875,641.04248046875,637.7750854492188,633.9634399414062,631.4727783203125,630.1829833984375,628.3540649414062,627.9956665039062,626.9210205078125,626.4710083007812,626.4766845703125,625.873779296875,624.5127563476562,623.180419921875,623.2146606445312,623.6654663085938,624.141357421875,623.8675537109375,624.5025024414062,625.369873046875,625.182373046875,625.8621826171875,627.4336547851562,629.003662109375,629.1088256835938,634.087158203125,635.2501831054688,634.9586181640625,635.2730712890625,636.0569458007812,641.5244140625,645.719970703125,712.117,711.0244,711.6697,709.79877,710.07874,709.70953,707.72656,707.0432,707.4221,706.7166,706.0641,705.5731000000001,703.97784,704.25726,704.0301,702.8805,702.9963,701.3376,701.0859,699.8792000000001,699.71045,699.6711400000002,699.0538000000001,698.0056,697.11633,695.50775,695.7763,695.94446,694.9609,694.99414,694.4632,693.50256,693.23596,693.3001,693.2588499999999,692.6009999999999,692.39886,691.5037,691.7485,691.43195,691.66675,691.22876,691.124,690.6019000000001,690.8601999999998,690.69684,690.4131,689.663,689.9788,690.0532,689.39484,689.48267,689.1506000000002,688.7937999999999,689.1042,689.50146,689.4165599999999,689.8116,689.2224999999999,689.25165,689.34546,689.5681,689.0169000000001
651.91748046875,652.3438110351562,648.287353515625,647.8701782226562,644.683837890625,643.3668212890625,642.4844360351562,638.6836547851562,637.5399169921875,632.9224243164062,632.7219848632812,629.9912109375,629.6771240234375,628.7915649414062,627.38330078125,627.3129272460938,626.289794921875,625.997314453125,623.9581298828125,624.966796875,625.7201538085938,625.4594116210938,624.669677734375,625.6489868164062,626.5670166015625,626.0462036132812,627.8213500976562,628.5672607421875,630.0339965820312,633.8564453125,635.3616943359375,635.794921875,636.1687622070312,637.1710815429688,640.067138671875,645.6765747070312,712.3311,711.5177,711.9212,710.7617,710.1120000000001,709.3009,708.0334500000001,707.98535,707.25165,706.94366,705.93713,705.7097,704.2792399999998,703.71716,703.586,703.2371,702.5099,701.7634,701.1972000000001,700.7816,700.3218000000002,699.1186500000001,699.06934,697.90204,697.32416,697.13995,696.0201,694.8201,695.1466,695.15375,694.2084,693.7586,693.12646,693.1343000000002,692.0951,691.8955700000001,692.2844,692.3294699999999,691.51306,690.7023300000001,691.7463,690.9571,690.4603,690.75214,690.3546,690.5286,690.6381,689.9625000000001,689.0048,689.46185,689.9667,689.2091,688.781,688.64233,688.7224000000001,688.47723,689.1517,688.4032,688.53186,688.65656,688.6830399999999,688.3277,688.9285,688.3841
653.953369140625,653.767578125,653.849609375,647.4939575195312,647.79248046875,645.47119140625,643.9191284179688,642.7847900390625,640.776611328125,638.4638671875,635.0390014648438,634.4249877929688,631.6885986328125,630.0390625,629.0272216796875,628.5130615234375,627.9616088867188,627.0382690429688,625.7428588867188,627.04931640625,626.9050903320312,626.9216918945312,627.3204345703125,627.3153076171875,628.0603637695312,628.2052612304688,631.810302734375,631.5321655273438,632.4775390625,635.5571899414062,635.6617431640625,636.6008911132812,638.0823974609375,642.0004272460938,642.3850708007812,713.17084,712.4429299999999,711.87354,711.68695,710.4035,710.15936,709.06366,708.15247,707.1583,707.2653,706.8199500000001,706.39923,704.95856,704.95166,703.9175,703.5652,702.43604,702.39484,701.1159,700.49756,699.91046,699.9697000000001,699.20654,697.6631499999999,698.2088999999999,696.43976,695.6588999999999,694.6736,695.5088,694.67267,694.1546600000001,693.82166,693.7764,693.28973,692.5071,692.8413,691.82855,691.938,691.4590499999999,691.1469,691.26306,691.00195,690.8230000000001,690.44934,689.86743,690.3773,690.31134,690.3963999999999,689.5995,688.9436,688.2808,688.91785,689.2602999999999,688.52075,688.8556,688.15466,688.7735,688.7102,689.1011000000001,688.0881999999999,687.7645,688.1997,688.3869,688.2554300000002,687.38
747.967,746.0699,658.2242431640625,653.5941772460938,649.31298828125,649.8173828125,647.9795532226562,644.8526000976562,642.526123046875,640.3512573242188,638.5452270507812,636.395263671875,633.5070190429688,632.2070922851562,630.7825927734375,629.4986572265625,629.3715209960938,629.115234375,627.1215209960938,629.4197387695312,628.2113037109375,629.2322387695312,631.3330688476562,629.227294921875,629.9307861328125,631.9779663085938,633.1825561523438,636.6083984375,636.4922485351562,637.8794555664062,636.88037109375,639.5068969726562,640.5039672851562,643.7321166992188,713.5737,712.86456,712.09424,711.4324999999999,711.3409,710.37634,710.0279,708.9126999999999,707.87695,707.1216400000001,706.0826399999999,706.58795,704.2691,703.9976,703.68506,703.317,702.8975,703.0686000000001,701.30035,701.1518,700.64075,699.6632,699.8679,698.86865,698.28644,697.5935,697.2618,696.5223000000001,694.96484,694.2963,694.7715,693.8659,693.72534,693.2231,692.8153,691.9836399999999,692.26666,692.35455,690.98413,691.7470000000001,691.2946999999999,690.90643,690.4624,689.6781,690.89056,690.08624,690.1874399999999,689.9670000000001,689.4777999999999,688.3492,689.01917,688.8563999999999,688.1338,688.9903000000002,688.1225,688.6746,687.8963,687.325,687.9283,687.505,688.6816999999999,687.1931,688.0162,687.7993000000001,687.4336,687.9942600000002
747.06836,745.8176000000001,744.7819,652.0096435546875,650.8370971679688,651.0596923828125,650.56396484375,647.5549926757812,643.9558715820312,642.755859375,640.1229248046875,638.996337890625,637.310302734375,634.7884521484375,633.8346557617188,633.4837646484375,631.2141723632812,631.1300659179688,630.2049560546875,632.6776733398438,631.8856201171875,631.7774658203125,633.396484375,632.972412109375,634.7057495117188,634.34619140625,637.108642578125,638.4060668945312,639.9415283203125,641.0484008789062,643.6041870117188,642.1696166992188,646.2813720703125,713.87524,713.12946,712.1283,711.6565,710.6327,709.9690599999999,709.84564,709.343,708.2034,707.95667,707.07477,706.47534,705.82513,704.738,704.3583,703.5938999999998,703.53217,701.91986,702.0758,701.42896,700.8885,700.478,699.35065,633.499267578125,634.9415283203125,636.0030517578125,697.14636,695.9774,694.184,694.21954,694.049,694.0495599999999,693.2699,693.0186000000001,693.1071,692.4836,691.7658,691.78156,691.825,691.1455,690.9659,690.58545,690.5118,690.5952,690.58264,689.4799,689.7003,689.5693,689.7341,688.4335999999998,688.19904,687.457,687.99536,687.85596,688.55597,688.4095,687.92816,687.5323000000001,687.0869,687.62195,688.0019500000001,686.77814,687.15454,687.01843,687.2184400000001,687.44183,686.9462999999998
747.3856,745.0245,744.8086,743.9394500000001,649.2515258789062,645.7271118164062,651.1519165039062,651.219482421875,649.1038208007812,645.0947875976562,641.556884765625,640.6580200195312,640.656494140625,636.2804565429688,637.521240234375,637.4962768554688,638.353271484375,637.5486450195312,633.9005737304688,633.8450317382812,634.2437744140625,637.0278930664062,636.2156372070312,638.6517944335938,638.0092163085938,639.3292236328125,639.1510620117188,639.0404052734375,643.5914916992188,646.3743896484375,644.802490234375,644.2349243164062,714.04114,713.7236,712.70483,712.9756,711.4574,710.6684,710.26044,709.3832399999999,709.11615,707.36017,707.054,705.7727,705.8852,705.20056,704.30206,704.4191,702.3483,702.62823,702.0792,701.7589,700.6002,700.5940599999999,699.4668,632.6876220703125,632.2041625976562,633.2296752929688,633.6721801757812,696.6144399999998,696.70905,694.6930499999999,694.6373,693.51917,693.9695,692.9208,692.8196,692.6129000000001,692.05237,692.3985,691.40515,690.9925,690.5643,690.9362999999998,690.57294,690.5448,690.53973,690.39526,688.9358,688.505,689.7447999999999,689.0693999999999,689.1711,687.61273,688.1893,687.5772,688.0271,687.9577,687.2044,686.82855,687.3972000000001,687.7486,686.67053,687.3313,686.90375,686.7574,686.7485999999999,687.21405,686.2421,686.9411
747.67535,745.1521,744.1686400000001,744.0034,741.62866,648.12060546875,646.8200073242188,650.6505737304688,650.121337890625,650.1270751953125,645.619873046875,643.4198608398438,640.5943603515625,638.8135375976562,637.7724609375,638.6207885742188,638.4797973632812,638.4317016601562,636.2039794921875,637.9008178710938,639.0353393554688,639.1016845703125,639.7548217773438,641.0289916992188,641.4956665039062,641.7120971679688,640.76904296875,646.8849487304688,647.7128295898438,645.3297729492188,642.5214233398438,714.3889,714.00037,713.2527,712.93317,711.57404,710.9106399999998,710.7318,709.7824,708.7315,709.2832,707.9242,706.784,706.0922,705.44525,705.1176,703.7478,704.12616,702.82935,702.19025,702.0052499999999,701.5382999999999,701.3813,699.8585,635.040283203125,631.727783203125,631.8348388671875,633.5787353515625,634.2498168945312,635.4741821289062,695.0236,695.13245,693.9349400000001,693.65875,693.3549,692.6304,692.598,692.1184700000001,691.7138,691.4865,691.1892,690.78345,690.3917,689.978,690.9519,690.3693,690.0428,689.801,689.2174,687.65924,689.3728,688.6087,688.1605,687.7837999999999,687.70215,686.89075,687.4001499999999,687.13666,687.525,686.7314,686.2864,686.8056,686.19543,686.9772,686.5451,686.0851,686.54144,685.7799,686.45483,686.4859
746.40485,745.17175,743.70593,742.6158399999999,741.0433,740.24774,739.1583,644.7161865234375,645.3840942382812,650.1824340820312,648.1453247070312,648.854248046875,646.2332153320312,640.6255493164062,639.7241821289062,640.7590942382812,640.1829833984375,639.5357666015625,639.8070678710938,638.0206298828125,640.5261840820312,641.3215942382812,643.1981201171875,644.8017578125,643.0155639648438,642.0508422851562,645.0657348632812,647.0422973632812,644.7498168945312,715.8968,715.22266,714.29224,713.0226,713.27313,712.36035,711.96857,710.392,709.5984,709.48645,708.8779999999999,708.7351,708.0217,705.95264,706.4075,704.5891,705.0336,703.15826,702.53687,702.3987,634.7024536132812,634.2273559570312,633.6990966796875,632.8702392578125,631.992431640625,635.4580688476562,632.7155151367188,633.5255737304688,634.5676879882812,635.0651245117188,634.42529296875,694.7881,694.0601000000001,693.6062,693.5721,692.6705,692.8969,692.1134,692.1686,691.18494,691.3722,690.89496,690.5843,690.2648999999999,690.1317,689.7672,689.35986,690.2999,689.1303,688.7158999999999,688.1197499999998,688.42505,687.95483,687.7126,687.9076,686.834,687.7805,687.0808999999999,687.0281,686.7569000000001,685.7879,685.61865,686.8839,686.4192,686.59357,686.1521600000001,686.6766,686.8478400000001,686.4779999999998,686.07007,686.04736
746.60034,744.6259,743.1675,742.7048,742.0884,739.44684,738.0476999999998,737.6899000000001,736.2512000000002,645.106201171875,645.0790405273438,647.1432495117188,646.094482421875,647.291748046875,646.428466796875,646.5809936523438,646.6763916015625,646.7316284179688,644.4988403320312,645.1129760742188,643.8079833984375,645.5323486328125,645.9698486328125,643.6542358398438,644.3599853515625,643.21240234375,644.104248046875,717.498,716.7568,715.6947,714.37836,714.5588399999999,713.3862,713.5146499999998,712.4446,711.6353000000001,710.0293,710.2828,708.5776,708.99945,707.5134,706.5424,706.6380000000001,706.2242000000001,704.9824,703.924,703.16595,702.0886,630.4352416992188,630.53076171875,633.7431640625,633.2987670898438,632.875732421875,630.873779296875,634.5836791992188,634.7003784179688,634.6387329101562,636.8870239257812,635.453125,635.4404907226562,635.5579833984375,693.93884,693.3887,693.0827999999999,693.1522,692.71954,692.1661,691.58417,691.2021,691.1061,690.4566,690.41766,689.8814,689.5167000000001,688.89594,688.8034700000001,690.043,688.6917,688.9607,688.06134,688.4898,687.9783,687.8417,687.2554,686.36115,686.0992999999999,685.95215,686.425,685.98505,685.2764,686.11237,685.81024,685.7032000000002,686.0211000000002,686.4137600000001,685.82874,685.6728499999999,685.885,686.0971,685.1594
745.9154,744.79285,743.0805699999999,742.8731,741.9335,739.42145,738.4959000000001,737.15564,736.7445,735.4114,734.4946,648.3367919921875,646.2882690429688,646.65869140625,645.120361328125,648.3733520507812,646.140380859375,646.6593017578125,645.1085205078125,643.415283203125,643.1871337890625,642.755615234375,643.685791015625,644.4041137695312,645.1842651367188,718.7784999999999,718.3101,717.07385,716.7616,714.7143,714.3654000000001,713.5054,713.0332,713.116,711.6213400000001,710.71326,709.5074,709.9109999999998,708.7547,708.51154,707.90515,706.1902,705.7248,705.0296000000001,704.00714,703.6881,703.3759,702.7511,631.03759765625,629.7107543945312,632.9644165039062,631.2442016601562,631.881103515625,630.1235961914062,634.359619140625,634.0487670898438,633.8746948242188,637.3096923828125,636.4585571289062,636.0269775390625,636.3294067382812,694.28516,692.1894499999999,692.6017,692.3423,691.4215,691.2763,691.14374,691.17444,690.8726,690.3685,690.5042000000001,690.49854,689.4858999999999,689.5536,688.5654999999999,688.76215,688.6179,687.82513,688.1877399999998,688.6935,687.5942,686.58655,686.64905,686.133,686.1490000000001,686.8017,685.87213,686.4002,686.0893999999998,684.8769,685.7592,685.7484,685.60114,685.9193,685.8781999999999,685.33997,685.33203,685.14777,685.14417
745.59906,743.76776,742.6884,741.8704,741.0472400000001,738.6872600000002,737.5602000000001,737.0631000000001,735.9884999999999,735.12103,733.9333,647.1746826171875,645.922607421875,642.8510131835938,644.3204345703125,648.1492309570312,645.8344116210938,645.8411865234375,644.2661743164062,641.8580322265625,642.0430908203125,645.4632568359375,644.6865844726562,646.294921875,719.4811,719.22614,717.65826,717.5754,716.73987,715.7446,714.04535,713.81464,713.09827,712.25543,711.7591600000001,711.109,709.4726,708.9826700000001,707.8855999999998,707.1966599999998,707.4126,706.7744,704.91797,704.39746,704.7337,703.38165,703.6176,633.8826904296875,631.52783203125,629.8952026367188,630.65380859375,631.1920166015625,630.3896484375,630.5806274414062,632.5857543945312,634.4625244140625,634.388427734375,637.2060546875,636.1514282226562,636.1742553710938,635.8018188476562,632.833251953125,692.9927,691.9827,692.3939,691.4875,691.03876,690.88086,690.8896500000001,690.4643599999999,690.3204,689.6056,689.4334000000001,688.8778,688.6322,688.10474,688.3247,688.0451,687.9204,686.6519,686.3921500000001,687.2758,686.95966,686.1316,686.4430500000001,685.78125,686.1704,686.177,685.7402,685.64624,685.6369,685.55457,684.7330999999999,685.2585999999999,684.8568,684.9778000000001,685.4998,685.0565,684.84143,685.2324
745.20215,743.9022,742.99786,741.06287,740.4967999999999,739.4786999999999,737.8974600000001,736.5377,735.4838,734.74176,734.1481,733.19434,646.4847412109375,643.7235717773438,644.147216796875,646.2608032226562,644.654296875,643.9000854492188,642.8787841796875,640.7398681640625,641.18896484375,646.5025634765625,645.8856201171875,720.4963,719.17975,718.26965,717.6377,716.64777,716.3991999999998,714.78937,714.7951,713.4134,713.0116,711.96423,711.9480999999998,710.6218,709.61633,708.45306,707.9256,708.1474000000001,706.67053,705.6378,704.9235999999999,634.2562866210938,633.3606567382812,633.827392578125,633.6396484375,634.0301513671875,632.855224609375,631.307373046875,630.4282836914062,631.4016723632812,630.379638671875,629.9922485351562,631.4110717773438,635.3594360351562,634.7753295898438,635.6934814453125,635.6806030273438,636.825439453125,635.3515014648438,632.1610717773438,631.8828125,692.4187,691.328,691.08484,691.2592,690.6476,689.955,690.5906,689.9411,689.3998999999999,689.0569500000001,688.0692,688.4719,687.59076,688.22327,688.0044,687.31323,687.52606,687.6171,687.1067500000001,686.6853000000001,685.6497,686.3436,685.4197,685.76843,685.9962,685.5904,685.106,685.7523000000001,684.6432500000001,685.5015000000001,685.6938,684.52783,685.49976,684.9,684.99524,684.72485,684.9547
745.1488,743.6079,742.2067,741.1383,740.1431,738.5345,737.4265,736.5358000000001,735.24634,734.7663,733.66797,732.3363,645.9022216796875,644.503662109375,644.2924194335938,644.8270263671875,643.5999145507812,643.2146606445312,641.8528442382812,640.8924560546875,642.2643432617188,645.841064453125,645.7803344726562,720.0858,718.2998,718.342,717.46014,716.778,715.73346,714.79877,713.7324,713.3106,712.8954999999999,711.48334,711.39777,710.47003,708.9455,707.9309,707.2163,706.9558,706.8578,634.3028564453125,634.2887573242188,633.8037719726562,633.4949340820312,633.0042114257812,632.427734375,630.3568725585938,633.6206665039062,632.5355834960938,631.3432006835938,632.6928100585938,629.13232421875,629.6719970703125,629.5780639648438,635.02685546875,635.8650512695312,635.9270629882812,635.5935668945312,637.4398193359375,635.7726440429688,632.5822143554688,632.423828125,632.20556640625,631.1119384765625,691.14197,690.7554300000002,690.5189,690.20856,689.5534,688.864,688.96686,688.2273,688.6195,687.5840500000002,687.3100999999999,687.9664,688.088,687.0700999999999,686.8008,687.7607,686.7060000000001,686.4707,685.86005,685.5463,685.08685,685.73444,685.7048,685.3130999999998,684.8347,684.7731999999999,684.90674,685.34424,684.80005,684.7825,685.24536,684.4739400000001,685.3025,684.1912,684.3633
744.6574,742.76215,742.09406,740.76764,739.6623999999999,738.596,737.3957,735.5463,735.23596,734.3063,733.1924000000001,644.8529052734375,643.7721557617188,645.316650390625,644.35009765625,643.2096557617188,642.6870727539062,642.8106079101562,641.2592163085938,641.0899047851562,642.0309448242188,644.9501953125,643.646728515625,645.1488647460938,719.0182500000001,718.4147,717.5570700000001,716.3367,716.0467,713.8379,713.84357,713.2262000000001,712.5527,711.4493,710.6264999999999,709.7256,709.2349,707.46826,633.4803466796875,632.4160766601562,632.06591796875,634.7743530273438,632.0433959960938,632.9773559570312,632.9374389648438,632.2550048828125,629.733642578125,629.4668579101562,628.8202514648438,635.5538940429688,636.415283203125,633.4771118164062,631.1636352539062,631.5286254882812,635.7599487304688,637.7105712890625,638.9458618164062,636.0910034179688,636.1668090820312,637.651123046875,635.6505126953125,631.6618041992188,635.0791625976562,632.2132568359375,630.8040771484375,629.7970581054688,628.6644287109375,690.7903,689.5998,689.66626,689.4999,688.30334,688.44885,687.3371,687.8877,687.20154,688.0124,687.2283300000001,686.4102,686.5663,687.15326,686.34814,684.9184,685.3506500000001,685.3669,684.79443,685.0440000000001,685.0570700000001,685.38916,683.7951699999999,684.7709399999999,685.1233,685.2394000000002,684.7493,684.11554,684.01294,685.125,684.8566,684.59796,684.9933
744.1790000000001,743.3464000000001,741.0521,740.39905,739.15216,738.7937999999999,737.24115,735.23083,734.84595,733.9383,732.75574,644.5787963867188,640.1435546875,643.0479736328125,643.3433837890625,641.0498657226562,639.4545288085938,639.7142944335938,639.5531005859375,640.7282104492188,638.6533203125,640.2823486328125,641.3900756835938,642.8709106445312,717.7835,717.1718,717.4095,715.8835,715.1705,714.31573,713.5893599999999,712.69867,712.1176,711.7796599999999,710.55994,709.7113,637.177490234375,637.0020141601562,636.7749633789062,631.9886474609375,636.1895141601562,633.3035888671875,635.0122680664062,633.1072387695312,631.2190551757812,630.6007690429688,629.4422607421875,629.7532958984375,629.1174926757812,635.1692504882812,634.4266357421875,632.0687255859375,631.794189453125,633.5186157226562,635.7064208984375,639.9053955078125,640.3937377929688,635.9813842773438,635.8400268554688,637.0048828125,635.2197265625,634.023681640625,633.1608276367188,630.4290771484375,629.1371459960938,627.5797729492188,628.6761474609375,630.2554931640625,631.3555297851562,689.0322000000001,688.6357399999999,688.0479,688.1786999999999,688.1576,687.32526,687.2482,686.9261,687.2256,686.1163,686.05005,686.0752,686.0735,685.20087,684.6878000000002,684.48224,684.5083999999999,684.681,684.8097,684.7604,684.1943000000001,684.047,684.131,683.9364,684.14484,683.54535,683.8814,684.3481399999998,684.40247,683.20184,683.0315
744.1684599999999,743.12085,740.8564,740.82666,739.4633,737.03235,736.0209399999999,735.6541,735.0034,734.3208,645.5608520507812,645.705078125,642.8558959960938,639.9826049804688,636.7537231445312,635.2216186523438,634.8287353515625,634.9192504882812,634.7182006835938,634.603759765625,635.7831420898438,641.6382446289062,643.2909545898438,644.1688232421875,643.77783203125,717.3074299999998,717.5192,715.508,714.6635000000001,714.13916,713.4932000000001,712.2992999999999,711.88165,710.98444,638.328125,638.2550659179688,636.533935546875,636.9703979492188,635.23876953125,634.8728637695312,632.9967041015625,629.8306884765625,628.2957153320312,632.395751953125,629.726318359375,630.2659301757812,630.0271606445312,631.2804565429688,634.23828125,634.3131713867188,633.46240234375,633.9389038085938,633.4599609375,632.9343872070312,631.9354858398438,635.3698120117188,637.2191772460938,635.8760986328125,635.7839965820312,636.6172485351562,634.865234375,633.6598510742188,631.3468627929688,629.4176635742188,627.817626953125,627.13330078125,627.1587524414062,630.2516479492188,632.2077026367188,630.954345703125,630.453369140625,630.6509399414062,628.1488647460938,625.0282592773438,687.7117,687.29156,687.4914,686.5395,685.5312000000001,685.9459000000002,685.79364,685.95337,685.31244,684.2417,684.9938,684.44617,684.3971999999999,684.4300499999999,684.8123,684.7179,683.9466,683.1867,683.3484,683.85187,684.2118500000001,683.0746999999999,683.777,683.2246,683.9930400000001,683.6758399999999
