790.7489,789.7677,787.5437999999999,787.2882,786.17914,785.3409,782.6416,781.2736,780.31573,779.27905,778.5697600000001,776.3770999999999,774.9505999999999,774.1418999999999,773.4472700000001,772.2284,771.5913,770.67255,769.94574,769.451,767.6767,766.4966,765.3787,764.89105,763.97894,762.90546,761.18744,761.48566,759.5446,758.7789,757.6778,757.4321,756.8551,755.901,754.3907,754.4903,752.5816,611.3390502929688,613.2078247070312,614.9268188476562,613.0922241210938,610.6713256835938,607.7525634765625,606.51025390625,604.8189086914062,606.7744750976562,608.1593017578125,607.4112548828125,604.615234375,604.0332641601562,604.0587158203125,604.711181640625,603.0888061523438,601.2776489257812,599.099365234375,598.666748046875,598.9354248046875,596.4103393554688,595.1083984375,594.0326538085938,592.63427734375,592.2653198242188,594.387451171875,595.5332641601562,594.1553955078125,594.3110961914062,593.462646484375,593.0783081054688,592.029052734375,592.1409301757812,592.4427490234375,593.562255859375,594.8910522460938,595.5424194335938,596.53564453125,597.3228149414062,598.57080078125,600.832275390625,602.1439819335938,730.61237,731.1400000000001,730.4829,730.63153,730.7721000000001,730.2608599999999,730.3961000000002,729.7587999999998,730.0482,729.99725,729.7272,729.95306,729.9564,729.63477,729.4482400000002,729.79846,729.8069499999999,729.90924,729.9298,729.8465999999999,729.2206999999999
790.1013,787.57947,785.5440699999999,785.2085999999999,783.5947,783.42737,781.82947,780.28906,778.6788,776.98676,777.18866,775.3143,774.4615999999999,772.39606,771.0040000000001,770.44604,770.3853000000001,769.07056,768.37744,766.6308000000001,767.1113,765.4319499999999,764.20984,763.24384,763.3209,761.6859,760.1471000000001,759.9648,758.1615,757.4004,757.38916,756.2034,755.69214,754.8487,754.25433,752.8832,614.3445434570312,614.140625,613.1928100585938,613.12841796875,611.7557983398438,609.4205322265625,604.6953735351562,603.146240234375,605.75244140625,606.0448608398438,605.3748168945312,604.5335083007812,604.670166015625,602.775146484375,603.2467651367188,602.7534790039062,602.4943237304688,600.3728637695312,599.2692260742188,596.1585083007812,593.2394409179688,597.8609008789062,594.506591796875,593.1569213867188,590.7175903320312,590.7551879882812,593.32568359375,594.1917114257812,593.0448608398438,592.5200805664062,591.8399658203125,592.3892211914062,592.46240234375,592.989501953125,593.7741088867188,593.4484252929688,593.9699096679688,594.5724487304688,595.3692016601562,596.2765502929688,597.2764282226562,598.2542114257812,601.71875,601.9098510742188,730.2991299999999,730.037,730.2174,729.5814,729.3394,729.3741,729.31696,729.15576,729.2663,728.89795,728.8745,728.8838499999999,728.77563,728.57465,728.6597,728.07654,729.1624,728.9704,728.8747,728.2679
788.9333999999999,786.72144,785.0723,784.43274,783.62555,781.4799,780.51215,779.5978,777.8772000000001,775.6944999999998,775.9659999999999,774.3487,773.01154,771.3314,770.895,769.95416,769.67267,767.5587,767.1668,765.45154,764.9999,764.27124,763.9,761.6319,761.23755,760.7058,758.98737,758.8124,758.0854999999999,755.99146,756.04694,754.7709399999999,754.7430399999998,753.7882,615.4816284179688,615.867431640625,613.5796508789062,613.244873046875,612.2114868164062,612.5184936523438,611.0048217773438,607.9650268554688,609.90625,608.6723022460938,606.5224609375,605.5177001953125,604.7064819335938,603.1565551757812,604.4444580078125,603.0377807617188,602.6970825195312,602.0023193359375,602.34033203125,599.6201171875,599.1467895507812,596.9363403320312,596.7196655273438,598.5201416015625,594.8134155273438,592.3675537109375,590.0056762695312,590.5453491210938,591.84912109375,593.0426025390625,592.8636474609375,592.1828002929688,592.31298828125,592.4353637695312,592.6544799804688,592.8475952148438,593.5045166015625,593.2003173828125,592.682373046875,593.3674926757812,593.9480590820312,594.891845703125,595.7847900390625,598.8197631835938,600.7431640625,602.0928955078125,601.7315673828125,729.1494,729.1313,728.84796,729.0373,727.9197,728.5107,728.00793,728.7023999999999,726.9237699999999,726.94934,727.4201,727.6333,727.2866,728.5938999999998,727.54376,728.0834400000001,727.28613,728.0688,726.8168000000001
787.9359999999999,785.5125,783.6838,782.55005,781.8089,780.8819,779.1436,777.7040999999999,775.91406,775.9297000000001,774.8108,773.4347,772.28076,770.5239,769.43134,770.1755,768.6514,767.3791,765.8124,764.56,764.1666,763.0958,762.83795,761.2361,759.85535,758.9311,758.30035,757.41095,755.6555000000001,755.4863,754.61163,753.9751,753.0217,615.815185546875,615.66943359375,614.5755615234375,611.8035888671875,612.143798828125,611.6417846679688,610.5195922851562,609.0750122070312,607.3740234375,608.6057739257812,608.6724853515625,607.620361328125,606.3936157226562,604.5269775390625,602.02685546875,602.2281494140625,603.0144653320312,602.6170043945312,600.4058837890625,599.9775390625,598.2723999023438,598.698974609375,597.0255126953125,596.6433715820312,595.9634399414062,592.5930786132812,591.0234985351562,590.577392578125,590.21337890625,593.6577758789062,594.4052734375,593.6338500976562,591.622314453125,593.36328125,593.6392822265625,593.7177734375,593.4078369140625,593.3331298828125,592.4495239257812,592.3486938476562,592.3359985351562,592.9287109375,593.8619995117188,596.2968139648438,599.7019653320312,601.1848754882812,601.58544921875,602.742919921875,602.15283203125,727.56854,726.9449499999998,726.85315,727.83746,726.7895,726.92584,725.98804,726.69696,727.1214,726.8164,725.7671,727.0020999999999,727.55817,726.3271499999998,727.27985,726.72327,725.89716,727.0436
786.7498,783.9840000000002,783.5368700000001,782.2722999999999,780.7616,779.9168,778.55194,777.137,775.78644,774.62213,772.6728,772.3038299999998,770.8929,769.83716,769.5913,768.5054,766.6529,766.1487,764.865,763.5573999999999,763.13165,762.2815,760.8966699999999,760.2219,759.11725,758.337,757.42053,756.11017,754.64996,754.4781,753.94745,752.65753,616.478271484375,613.7789306640625,614.6327514648438,613.6806640625,610.937255859375,610.86376953125,611.19677734375,609.1592407226562,607.1824951171875,606.539794921875,607.1130981445312,607.8307495117188,608.6974487304688,608.1131591796875,605.3112182617188,602.72802734375,600.4865112304688,601.7576904296875,603.462646484375,601.3737182617188,600.5103759765625,599.4324951171875,599.645263671875,598.3890991210938,595.95703125,594.3662109375,590.7836303710938,590.3991088867188,590.4241333007812,590.9363403320312,591.7037353515625,593.1038818359375,593.3540649414062,594.5808715820312,593.3292846679688,594.464599609375,594.2660522460938,593.8400268554688,593.033447265625,592.6275024414062,592.17041015625,591.4969482421875,592.5991821289062,594.6416625976562,598.6021728515625,600.4932250976562,601.3187866210938,601.2587890625,602.0584716796875,604.2553100585938,602.52685546875,726.5012,725.7511999999999,725.8618,725.5916,726.60846,726.0919,724.8152,726.52576,726.0879,724.7694,725.7827,725.4071,725.00836,725.1445,725.4195,724.6531400000001,724.6212
784.2365,783.71075,781.60254,780.89966,779.5700999999999,779.03937,776.3901,775.72345,773.9086,773.35693,773.0435,771.627,770.26276,768.71576,768.345,766.9051,765.6282999999999,765.43726,764.6711400000002,763.3831,762.0627,760.9129,760.0793,758.8967,758.5616,757.753,755.7317,755.9675,754.2726,753.829,753.1291999999999,614.1546630859375,613.3385620117188,613.2045288085938,615.219482421875,613.5072021484375,610.0817260742188,609.4003295898438,608.401611328125,607.5059814453125,605.7864379882812,604.9306640625,605.642822265625,607.49951171875,607.8937377929688,608.2149047851562,607.1529541015625,602.7340087890625,599.4609375,599.409912109375,599.0330810546875,599.5545654296875,603.1648559570312,601.6552124023438,599.6962890625,597.854248046875,595.6665649414062,593.2826538085938,590.274169921875,589.8154907226562,590.0192260742188,590.6851806640625,591.2868041992188,591.7689819335938,592.9325561523438,593.8805541992188,595.529052734375,594.3942260742188,594.7545166015625,594.0248413085938,593.6304321289062,592.8910522460938,592.548583984375,592.0557861328125,594.2220458984375,598.293212890625,599.7516479492188,600.2451171875,600.8488159179688,600.5771484375,598.9208984375,602.30419921875,604.66748046875,725.423,724.2681,725.1175,724.5792,725.1291000000001,724.23315,724.5839,723.7874999999999,724.1319999999998,724.2935,725.1343399999998,724.35333,725.16144,724.9730999999999,725.05664,724.02484,724.4884
784.5703000000001,782.23474,781.31555,779.6686,779.41534,777.7593,776.3714600000001,774.0058,773.3988999999999,772.13995,771.2372,770.3137000000002,769.5939,767.3747000000001,766.72144,766.0878,764.9079,764.29944,762.23224,761.79376,760.5422,760.32025,758.2851600000001,758.7046499999999,757.56824,755.4894,754.64453,754.2008,753.1297,752.1627,614.1881103515625,612.8705444335938,611.4003295898438,609.2119750976562,608.050048828125,609.7086181640625,607.8609619140625,608.719970703125,611.213623046875,607.5941772460938,605.552490234375,605.0020141601562,604.8875732421875,606.718505859375,607.3948974609375,608.6023559570312,607.0640258789062,602.1083374023438,598.3248901367188,596.7116088867188,595.9772338867188,600.0359497070312,597.0526733398438,601.3623657226562,599.7567749023438,597.76025390625,594.9219970703125,592.790283203125,590.1492919921875,589.6385498046875,589.91943359375,590.792724609375,591.9877319335938,593.7275390625,594.9461059570312,594.263427734375,594.9133911132812,595.7372436523438,594.8394775390625,594.4733276367188,594.5606079101562,593.6318969726562,593.4339599609375,594.3148803710938,594.333740234375,597.1154174804688,595.1380615234375,596.9129638671875,597.2181396484375,598.1211547851562,598.7833251953125,600.2703247070312,602.4944458007812,604.922119140625,723.5379,723.5292,723.3457599999999,723.35455,724.1861,723.6037999999999,723.2932,723.21484,722.82336,723.60266,723.12366,723.1298000000002,722.9001500000002,723.2317,723.5616500000001,723.50964
782.30707,780.63824,779.8794,777.3573999999999,778.12537,775.4903,775.0207,773.2924,772.5091,771.0947999999999,770.1989000000001,769.53986,767.5406,766.82654,765.31384,764.556,763.7046,763.8074,761.5855999999999,761.10986,759.7226,758.4769,758.4343,757.5076,755.7984,755.4004,753.8728000000001,753.7621,752.1871,616.2859497070312,613.8428955078125,611.08056640625,608.3810424804688,606.7294311523438,605.9214477539062,605.6388549804688,610.0712280273438,607.8294677734375,610.9682006835938,608.0261840820312,605.6609497070312,604.5534057617188,604.5272216796875,606.3353881835938,608.6103515625,608.1991577148438,605.9840698242188,600.6267700195312,596.7633666992188,595.4059448242188,594.111572265625,598.9425048828125,597.4909057617188,600.90966796875,600.1084594726562,597.0562744140625,594.51171875,592.6130981445312,589.7979736328125,589.6817016601562,591.3353271484375,592.4096069335938,593.8895263671875,595.6137084960938,597.6682739257812,598.6551513671875,596.0548095703125,594.5282592773438,594.81982421875,594.7431640625,595.2730712890625,594.5480346679688,594.1363525390625,594.2379150390625,592.4041748046875,592.9583740234375,595.9718017578125,596.4849243164062,596.3165283203125,596.9524536132812,596.9475708007812,599.0196533203125,600.9957275390625,603.5883178710938,604.75732421875,722.40356,723.0289,722.7944,722.4595999999999,722.7708,722.6912,721.3067,722.0354599999998,722.3035,722.65485,722.607,722.2614,722.3753999999999,721.9748500000001,722.5769
782.3572,780.4188999999999,778.9072,777.2745,776.9965,774.43085,774.02466,773.4434999999999,771.11,770.3306,769.8994,768.7026000000001,766.9711,765.974,764.70197,763.59595,763.0399,762.3963000000001,760.68066,759.1216399999998,758.4207000000001,757.6535,757.01025,755.1677,755.2956,753.3099400000001,752.96686,619.8591918945312,616.9329833984375,612.2423706054688,607.1357421875,607.2601318359375,605.7586059570312,605.1132202148438,604.620849609375,609.5513305664062,609.9296875,607.84228515625,610.8543090820312,608.658935546875,604.2938232421875,603.18701171875,605.6202392578125,607.6504516601562,608.4234619140625,607.02587890625,603.345703125,599.312744140625,595.9579467773438,594.8397827148438,595.3377685546875,597.14990234375,598.4734497070312,600.8675537109375,599.8424682617188,596.5912475585938,593.624267578125,592.8566284179688,590.145263671875,590.114013671875,590.970458984375,592.6033935546875,593.944580078125,595.4307861328125,596.742919921875,598.0994873046875,594.7984619140625,593.8660278320312,592.8250732421875,594.3512573242188,595.4053955078125,595.1415405273438,593.9077758789062,592.4758911132812,590.44970703125,590.9840698242188,593.7230224609375,594.86376953125,597.4629516601562,598.3397827148438,598.64453125,597.6505126953125,599.1988525390625,601.723388671875,604.2262573242188,601.9755859375,721.69354,721.52893,722.63086,721.1305,721.5493000000001,721.0174,721.423,721.2050999999999,721.5094999999999,720.69226,721.4483,720.80176,721.1764,720.7429
781.40485,779.2105000000001,777.1949,776.7488000000001,775.6135,774.0031999999999,772.25366,771.29724,770.35754,768.9872,768.5606,767.0176000000001,765.58215,763.6325999999999,763.71375,763.2550000000001,761.60175,761.0244,758.9704,757.5752,756.56573,756.1941,756.4256,755.28033,754.1035999999999,753.0841,620.6395263671875,617.2669067382812,613.3262329101562,608.6759643554688,605.5760498046875,605.3446044921875,603.9396362304688,603.6951904296875,604.8271484375,610.1094970703125,609.5418701171875,608.0827026367188,611.114990234375,607.4021606445312,603.4330444335938,602.6473999023438,605.7156372070312,608.1867065429688,607.5317993164062,605.7932739257812,603.0966186523438,599.686279296875,595.7080078125,594.322509765625,596.0184936523438,597.2599487304688,599.6865844726562,601.5478515625,599.7105102539062,595.8099365234375,592.5379028320312,592.5809326171875,591.518310546875,590.5318603515625,590.7042236328125,592.641357421875,595.3378295898438,597.2655639648438,596.424072265625,595.6489868164062,593.7529907226562,594.0802001953125,595.6116943359375,592.8377685546875,595.67724609375,594.4122924804688,592.9811401367188,590.5780639648438,589.5597534179688,589.6275024414062,591.69970703125,591.8041381835938,593.4684448242188,596.3764038085938,597.010009765625,594.5819091796875,596.1236572265625,600.3214721679688,601.3021850585938,605.6154174804688,721.0141,721.2464,720.9364,720.3655000000001,720.1752,720.1421,719.445,719.4597,719.6022,720.727,719.9491,719.83374,720.6142,720.7795999999998
780.0955,777.2445700000001,776.8369,776.3563,774.6505,773.9124000000002,771.35486,770.7066,769.4795999999999,768.9540999999999,767.1753,764.82886,764.69556,763.49084,762.7763,761.9239500000001,760.95856,760.5596,758.9096,758.4333000000001,757.2122,754.7605,754.9111,754.3381,753.1264999999999,752.19354,619.1278686523438,614.544677734375,610.8007202148438,606.3104248046875,604.713623046875,604.1909790039062,602.8925170898438,602.7593994140625,605.4000854492188,609.1008911132812,608.334716796875,608.5942993164062,607.3787231445312,605.9720458984375,602.95458984375,600.9060668945312,604.7037963867188,607.2214965820312,606.6014404296875,604.4866943359375,602.7178955078125,599.6146850585938,596.3925170898438,594.4998168945312,596.8746337890625,598.940673828125,600.3342895507812,602.6987915039062,600.1322631835938,596.0401000976562,591.7184448242188,591.7156372070312,591.5756225585938,592.314208984375,592.572509765625,594.8785400390625,595.567138671875,597.5188598632812,597.2654418945312,595.5015869140625,595.086669921875,596.5235595703125,594.4901123046875,592.3374633789062,589.5487670898438,588.8469848632812,589.5899658203125,588.4168701171875,588.8555908203125,588.9808959960938,590.134765625,591.496826171875,592.5143432617188,592.4522094726562,595.593994140625,597.5039672851562,597.0860595703125,598.9642333984375,599.88720703125,603.1873779296875,604.1110229492188,719.3701999999998,719.58295,719.5385999999999,719.69055,719.4773,718.0678,719.4315,719.53973,718.8984,719.26984,719.1804,719.1471,719.45435
778.4783300000001,776.70416,775.3213,774.64,773.63464,771.9144,770.5209,769.9175,768.3616,767.6851,766.87286,764.98505,763.9288999999999,762.2429999999999,761.4284699999998,761.1696,759.7626,759.28876,757.2555,756.3035,755.9185,754.4505000000001,754.16266,752.16,752.77405,620.7587280273438,616.4169311523438,612.5283813476562,607.7636108398438,605.6235961914062,604.5941162109375,603.84130859375,607.41943359375,609.9715576171875,608.1548461914062,605.7342529296875,605.28369140625,607.1641235351562,608.7550048828125,606.270751953125,603.7177124023438,600.7491455078125,601.80322265625,602.6395263671875,605.1326904296875,603.4137573242188,601.914794921875,598.86767578125,596.670654296875,596.9326171875,598.4215087890625,600.2166137695312,601.031982421875,603.8024291992188,600.7360229492188,596.7796020507812,592.044921875,591.0068359375,590.6780395507812,592.3043823242188,593.527099609375,595.8158569335938,593.6841430664062,595.1741943359375,596.6476440429688,597.0430297851562,598.1085205078125,595.9532470703125,594.04638671875,593.3693237304688,591.37548828125,589.1671142578125,589.2908935546875,588.5208740234375,589.06884765625,588.9076538085938,589.8121337890625,590.9540405273438,591.8949584960938,591.5623779296875,593.833740234375,596.0195922851562,597.0135498046875,598.3552856445312,599.893798828125,602.0586547851562,603.276611328125,718.32935,718.8734999999999,718.8237000000001,718.6636999999998,718.01044,718.9546,718.1693,718.6947599999999,718.183,718.5883,718.2135600000001,718.3787,717.5302999999999
777.0453499999999,776.54803,775.0550499999999,773.5254499999999,771.7873499999998,771.2252,769.6258,769.2895999999998,767.5624,767.2138,766.2645,764.2376,763.22253,761.28394,760.53296,759.8815,759.1211,757.71155,756.9934,756.08673,755.0577,753.6553000000001,753.6249399999999,753.0509,751.1166000000001,619.2638549804688,616.5986938476562,611.1259765625,607.5200805664062,605.8890380859375,604.6129760742188,607.16943359375,609.6085205078125,608.6621704101562,608.3091430664062,607.0769653320312,605.0106811523438,606.2730712890625,608.3701171875,605.67578125,605.2513427734375,603.9715576171875,600.8243408203125,599.489990234375,601.451416015625,602.89501953125,603.1902465820312,601.4056396484375,601.885009765625,601.7413940429688,600.5202026367188,601.0870361328125,602.3173217773438,604.3956909179688,602.739501953125,597.5833129882812,592.9197387695312,590.3148193359375,590.0162353515625,591.607666015625,593.268310546875,593.947265625,592.803466796875,594.6323852539062,595.3878784179688,598.7617797851562,597.1148071289062,594.7615356445312,594.1427612304688,594.3865966796875,593.0353393554688,590.6557006835938,589.5379638671875,589.1441650390625,589.9349975585938,589.4388427734375,590.3690185546875,590.30029296875,591.21826171875,591.1322021484375,592.9732666015625,595.7139282226562,599.3604125976562,596.9654541015625,599.5371704101562,601.6356201171875,602.43017578125,717.95264,718.6328000000001,717.9012,717.2727,716.83264,717.93896,717.3004000000001,717.24133,717.27,717.92126,717.89526,716.9613000000002,716.9963
776.04675,774.79755,773.8626999999999,772.40753,771.2550699999999,770.4652999999998,769.257,768.3727999999999,766.2021,765.79755,764.2704000000001,762.5214,762.4586,760.24713,760.4483,759.2285000000002,757.63275,756.7582,755.9892,754.4838,753.2027600000001,752.6973,752.0969,751.0561,750.2548,618.5628051757812,617.434326171875,611.7945556640625,608.4680786132812,606.388427734375,608.8656616210938,609.5792846679688,610.438232421875,609.347900390625,608.89404296875,608.7089233398438,606.5927734375,606.5753173828125,608.0867309570312,610.1358032226562,604.9384765625,602.4048461914062,600.310791015625,599.0498046875,600.6312255859375,603.6315307617188,605.0394897460938,604.7024536132812,603.9546508789062,603.0773315429688,601.8740844726562,601.43017578125,603.7520141601562,603.71826171875,602.9140014648438,598.6484985351562,594.8399658203125,593.24169921875,589.7694091796875,590.9144897460938,592.6993408203125,593.4185791015625,593.9554443359375,594.0076293945312,596.6751098632812,599.1099243164062,596.9776611328125,593.9730834960938,593.5521240234375,594.4141845703125,593.5286865234375,591.2463989257812,590.2506103515625,591.0720825195312,591.7880859375,591.3945922851562,591.9708251953125,591.99072265625,591.6238403320312,591.4202880859375,593.0437622070312,595.7568359375,599.2935791015625,596.4844970703125,597.9496459960938,599.708251953125,601.0887451171875,716.9079,717.12634,715.6516,716.45764,716.5821,716.05994,716.19574,716.81805,716.49396,715.6777999999999,716.22974,716.34314,716.03937
775.7398,774.22125,772.73413,771.8758,770.7926599999998,769.63446,768.2923,767.0417499999999,766.0431,764.5096,764.4509,762.47614,760.6843000000001,758.9385,758.94165,757.3183,757.4406999999999,755.65784,754.4554,753.0683,752.4987,752.10986,751.1679000000001,750.42346,749.65094,618.2471313476562,615.0436401367188,609.973876953125,608.7171020507812,608.9254760742188,609.4391479492188,609.181396484375,610.2779541015625,609.8209228515625,608.9207153320312,609.5822143554688,610.146484375,609.2156982421875,609.13427734375,610.863525390625,608.1361694335938,604.1759033203125,603.0028076171875,602.011962890625,602.2596435546875,604.29541015625,605.5057983398438,605.0980834960938,604.1558227539062,603.58544921875,602.5407104492188,602.6925048828125,602.1976928710938,602.775634765625,602.791259765625,601.2752075195312,597.395751953125,595.7550048828125,594.511474609375,591.76025390625,594.751220703125,595.4017944335938,595.1426391601562,596.6063842773438,598.4902954101562,600.0006103515625,598.0988159179688,594.62841796875,592.81103515625,594.3936767578125,593.7023315429688,592.0834350585938,592.2493286132812,593.5140991210938,595.1974487304688,595.364013671875,593.9254150390625,593.4337768554688,592.9112548828125,592.6932983398438,594.108642578125,598.1619262695312,599.11767578125,596.3753051757812,597.6165771484375,598.814697265625,600.7200317382812,716.286,716.0494,715.53973,715.5961,715.7084399999999,715.33997,715.8258,714.9870599999999,715.4684399999999,714.9465299999999,714.87683,715.4204,714.8174
774.5027,773.0060000000001,771.5067,771.15076,769.962,768.90045,767.8067999999998,766.30475,764.5402,764.2321,762.9418,760.6023,760.21155,759.03314,758.3679,756.5615,755.9365,754.2319299999999,753.5441000000001,752.42566,751.4788999999998,751.02875,750.2531999999999,749.06586,748.9137,617.20166015625,612.1281127929688,608.0375366210938,609.7979125976562,609.052001953125,607.7056884765625,608.04345703125,608.8406982421875,608.6161499023438,608.1732177734375,609.21533203125,610.2839965820312,610.1935424804688,610.4960327148438,612.0186767578125,608.8426513671875,605.1779174804688,602.9310302734375,601.9082641601562,603.9467163085938,605.0340576171875,604.923583984375,604.8462524414062,605.2315063476562,605.2283935546875,604.8532104492188,602.9014282226562,600.8582153320312,601.1102905273438,601.587890625,600.839111328125,599.8409423828125,598.66796875,598.0426025390625,597.8419189453125,594.45556640625,594.47607421875,595.4136962890625,596.1484375,597.5281372070312,598.7828979492188,598.8306274414062,598.278564453125,597.1262817382812,597.8822631835938,595.0516967773438,597.6519775390625,596.1353759765625,596.0325317382812,596.4082641601562,596.0499267578125,597.1830444335938,595.4234619140625,594.389404296875,594.6494140625,598.3770141601562,599.0455932617188,599.0450439453125,597.8225708007812,597.9038696289062,598.071533203125,600.6864013671875,714.2245,714.2015000000001,713.95245,714.7823,713.66736,714.31055,714.1651,714.8316,714.497,714.6957399999999,715.0847999999999,714.1015600000001,714.05524
774.226,771.815,771.1581,770.45905,769.6254,767.6594,766.24274,765.3517,764.01135,762.1623,761.8487,759.9325999999999,758.8108,757.4859000000001,757.07153,755.828,755.1972,754.4556,753.2969,751.6020000000001,751.2421,750.3728,750.7178999999999,747.37274,747.3366,615.7906494140625,610.2770385742188,607.31884765625,611.5419311523438,607.2130126953125,606.8184204101562,607.0886840820312,606.9417724609375,605.3466796875,604.5490112304688,606.6273803710938,608.8905029296875,609.5289306640625,611.198974609375,611.6806030273438,609.2821044921875,605.4583129882812,602.73779296875,601.0150756835938,603.535400390625,604.4588012695312,604.9053955078125,605.6215209960938,604.1976928710938,604.1471557617188,603.3228759765625,602.0690307617188,600.9627685546875,599.347900390625,599.2763061523438,598.9927978515625,598.614501953125,597.7015991210938,597.0062255859375,596.8998413085938,595.0553588867188,594.4244384765625,595.2123413085938,595.2023315429688,596.6201171875,597.2637329101562,597.3838500976562,598.501220703125,597.5590209960938,595.3978271484375,600.0921020507812,600.5867919921875,601.0448608398438,597.5833740234375,597.0222778320312,596.4176635742188,595.5199584960938,595.17236328125,594.9957885742188,595.9309692382812,598.162353515625,597.3118896484375,598.4833984375,598.7528686523438,598.8819580078125,599.693115234375,600.3819580078125,600.257080078125,713.3790999999999,713.30914,713.39,713.3812,713.902,713.49286,713.3047999999999,712.88135,713.5099,713.3115,712.9017,712.79584
772.0076,771.3498500000001,770.1232,769.7407,767.8215,766.9631300000001,765.4391499999999,764.0569500000001,763.757,761.3223,760.6269,759.8965499999999,758.6996,758.1146,755.69073,755.0870399999999,753.3314,753.1668,752.0660399999999,751.01874,750.10333,749.6211,749.3343,747.8112999999998,746.7422,615.0569458007812,609.4698486328125,608.3987426757812,608.20947265625,605.720458984375,605.510498046875,603.9470825195312,602.3978881835938,602.2122802734375,602.7783203125,606.3336181640625,607.080810546875,608.2898559570312,610.0777587890625,609.7385864257812,608.7969360351562,605.967529296875,602.9087524414062,601.554931640625,602.9569702148438,603.8761596679688,604.0084228515625,604.593017578125,603.12744140625,601.9285278320312,601.2146606445312,600.13330078125,600.1788940429688,598.7499389648438,597.8131713867188,597.1323852539062,596.8600463867188,596.2262573242188,595.4432373046875,595.1194458007812,594.5023193359375,594.1296997070312,594.1753540039062,594.2970581054688,595.64306640625,595.812744140625,596.0968627929688,596.3462524414062,596.891357421875,596.6940307617188,598.1117553710938,597.1618041992188,598.7528686523438,596.4317016601562,596.1629638671875,595.4132690429688,594.9737548828125,594.4415283203125,595.4722900390625,596.4862060546875,598.2860717773438,599.0167846679688,598.825927734375,598.42236328125,598.5665893554688,600.3109741210938,600.3513793945312,600.734619140625,601.8522338867188,712.82635,713.2331999999999,712.84247,711.91956,712.54706,711.99664,712.8103999999998,711.89606,713.04596,712.36554,712.62274
771.9547,771.0621000000001,769.4284700000001,768.7502,767.6676,765.8574,764.44727,763.7161000000001,762.1227999999999,760.5953,759.3488,759.0216,758.2902,756.44086,755.5669,753.974,753.21216,752.3481000000002,751.50757,750.6792,749.7931,748.3851,747.8005,747.24963,745.52844,613.943115234375,608.89501953125,607.3057250976562,607.4078979492188,605.1541137695312,603.8590087890625,601.8458862304688,601.1842041015625,601.290771484375,603.412353515625,605.3271484375,605.5744018554688,605.9089965820312,605.6019897460938,605.52734375,606.8745727539062,605.9718017578125,603.6378173828125,602.1843872070312,601.8724365234375,602.7894897460938,603.2017822265625,602.6182250976562,601.4818115234375,600.5479125976562,599.9085693359375,598.8627319335938,598.7947387695312,597.5646362304688,596.448974609375,595.5143432617188,595.11669921875,594.530517578125,593.95703125,593.205078125,592.7469482421875,593.0353393554688,592.8085327148438,593.4896240234375,593.74755859375,594.5341186523438,594.8463745117188,595.076904296875,596.2127075195312,596.6549072265625,597.5610961914062,598.3645629882812,598.6663208007812,597.4967041015625,595.3326416015625,594.70654296875,594.4042358398438,594.4348754882812,595.4041748046875,596.4275512695312,598.1541748046875,598.9622802734375,598.1723022460938,596.698974609375,596.8984375,601.6276245117188,600.7395629882812,601.2390747070312,601.7556762695312,602.8857421875,711.9654,712.47565,712.1494,712.29803,711.91846,711.63904,711.8649,712.0072,712.13916,712.3453
771.1133,769.9269400000001,768.31177,767.8067999999998,767.2868700000001,764.62787,764.24805,763.1231,761.49567,760.52783,758.83746,757.5554,757.6000999999999,755.13824,754.54095,752.76935,752.8354,751.3401,750.8367,750.23486,748.97406,747.53625,747.4154699999999,745.2209500000001,745.0302999999999,613.5719604492188,606.947509765625,606.3157348632812,608.7171020507812,604.3333129882812,603.4525146484375,601.5161743164062,600.957763671875,601.0843505859375,604.5525512695312,603.2142333984375,602.1321411132812,601.9813232421875,601.7791137695312,602.28076171875,603.2335815429688,604.940185546875,604.4937744140625,602.3258056640625,601.1685180664062,602.1678466796875,602.33154296875,601.3721313476562,600.3194580078125,599.6752319335938,598.9559326171875,597.7118530273438,596.5436401367188,595.6982421875,594.4266357421875,593.8816528320312,593.1190795898438,592.327880859375,591.8706665039062,591.2291259765625,590.8521728515625,591.493408203125,591.289306640625,592.0327758789062,592.0782470703125,593.1539306640625,593.5217895507812,594.3257446289062,595.4818115234375,596.0031127929688,596.597412109375,597.0676879882812,598.5059204101562,597.8864135742188,596.3360595703125,595.3421630859375,595.3280639648438,596.0957641601562,596.8314208984375,596.8695068359375,598.1347045898438,598.4017333984375,596.29736328125,597.45556640625,598.3257446289062,597.8622436523438,600.91748046875,600.63671875,602.6453857421875,603.6405029296875,711.05725,710.6763,711.2453,710.73615,711.4022,710.39734,711.3909,711.3596,710.9457,710.8252600000001
770.1202,768.9932,768.0764999999999,766.6972699999999,764.9966,764.59375,763.0217,761.8065,761.08704,760.14435,758.3041000000001,756.2768,755.9293,754.5133699999999,753.8315,752.63306,751.66077,750.5794000000001,750.1938,748.9278,748.2425,747.5577,745.4783299999999,744.9844,620.9386596679688,614.6533203125,604.7471923828125,606.064453125,606.39208984375,604.8870849609375,603.7120361328125,601.7420043945312,601.4673461914062,603.2536010742188,604.5012817382812,601.67626953125,600.1917724609375,600.1213989257812,601.0477294921875,601.0836791992188,600.8466186523438,602.6978149414062,604.1587524414062,603.8017578125,601.9677124023438,603.876220703125,601.1915893554688,599.4064331054688,598.3975219726562,597.4759521484375,596.7764282226562,595.2772216796875,593.770751953125,592.3819580078125,591.9610595703125,591.5818481445312,591.328369140625,590.3500366210938,589.65771484375,588.4456787109375,587.8561401367188,587.7786254882812,588.7778930664062,590.0249633789062,590.9097900390625,591.17626953125,592.0433349609375,592.75634765625,594.3651733398438,595.0960693359375,595.183349609375,595.62939453125,597.6707763671875,598.4561767578125,599.2633666992188,600.094482421875,597.8609619140625,599.9055786132812,599.124755859375,598.739501953125,598.2176513671875,596.853759765625,595.5208740234375,597.0634765625,597.2606811523438,598.403564453125,600.4972534179688,601.3689575195312,603.3482666015625,604.3867797851562,710.56177,709.9192,710.2772,710.4026,709.99725,709.7603000000001,710.9635000000001,709.9303599999998,710.29767,710.27234
769.70483,768.14026,767.25006,766.3,764.5705,763.89014,762.1835999999998,760.26556,759.39844,758.5105599999999,758.35803,756.4892599999998,755.19525,753.6357399999999,753.59186,751.932,750.688,749.8375,749.21265,747.8613,746.4985,746.3421600000001,745.9564,744.50696,616.2183227539062,618.7109375,608.665771484375,607.2928466796875,606.884765625,606.8019409179688,605.81103515625,603.7840576171875,602.965087890625,605.0156860351562,604.3715209960938,601.5020141601562,600.042236328125,600.7005004882812,601.4336547851562,600.5416259765625,600.1214599609375,600.9528198242188,602.4888305664062,603.4376831054688,604.2814331054688,601.9369506835938,600.3948974609375,598.7107543945312,597.0974731445312,595.4990234375,592.9176635742188,588.6832275390625,585.2124633789062,584.1553955078125,582.9478149414062,583.33056640625,582.8670654296875,584.9472045898438,586.8781127929688,585.4088745117188,583.7147216796875,583.60791015625,583.8583984375,586.56494140625,588.512939453125,588.00439453125,589.7684326171875,590.4967041015625,592.1697387695312,594.2153930664062,594.090087890625,594.3845825195312,596.3565673828125,598.6397705078125,600.7101440429688,600.9164428710938,602.2721557617188,604.687255859375,601.2575073242188,599.9000854492188,598.8496704101562,596.8414306640625,596.6970825195312,597.2313232421875,596.469970703125,597.7373657226562,599.0598754882812,600.7138061523438,603.0768432617188,603.1607666015625,709.4336,709.5871,709.42175,709.55426,709.43365,709.5223999999998,709.4671,709.402,709.5973000000001,709.48267
768.7851,767.8752,766.21875,764.68396,763.8133,762.4927,760.6125,759.0006,758.74603,756.8359,756.5535,756.1623499999998,753.7283,753.3729,752.4417,751.10956,750.54913,750.2004,748.4635000000001,746.78815,745.57654,746.3689,744.7004,744.1449,615.1935424804688,612.7008056640625,610.6453857421875,608.5772705078125,607.4597778320312,605.5090942382812,609.9097900390625,607.0042724609375,604.5492553710938,605.8034057617188,604.9283447265625,604.1598510742188,606.75341796875,605.301025390625,603.7464599609375,602.4561767578125,600.2203979492188,600.556884765625,601.7728271484375,603.2817993164062,604.8511352539062,604.3695678710938,602.1399536132812,598.5308837890625,595.3651123046875,591.5213623046875,586.9507446289062,585.5659790039062,584.2039184570312,582.9759521484375,582.4566650390625,582.0670776367188,581.6614990234375,580.6009521484375,580.0980224609375,579.9114379882812,580.0774536132812,580.7376708984375,581.603271484375,581.6666259765625,585.0307006835938,585.2119750976562,586.2147827148438,587.3326416015625,589.3663940429688,591.7493286132812,593.2413940429688,592.9673461914062,595.0833129882812,597.4019775390625,599.8779907226562,600.0711059570312,602.196533203125,605.71435546875,602.094482421875,600.6289672851562,599.9125366210938,598.6188354492188,597.8509521484375,597.03271484375,596.2471923828125,596.1983032226562,597.2085571289062,600.1082763671875,602.1680908203125,602.5074462890625,708.6629,708.7809400000001,707.87115,709.1607999999999,708.8009,708.6085,708.9475,708.9839,709.0642,708.97974
768.2656,766.5081,765.3376000000001,763.3194000000001,762.15106,762.2862499999999,760.9083,760.0227,757.88904,756.7334600000002,755.78015,753.46515,752.9271,751.3289,751.4912000000002,750.2500599999998,750.1378,748.5209399999999,748.3418,746.39233,745.9517,744.9131,743.58453,742.92065,614.3464965820312,615.2493286132812,613.3407592773438,609.9523315429688,608.3872680664062,606.4614868164062,610.385009765625,610.1724853515625,607.4847412109375,610.6239013671875,609.0659790039062,608.8202514648438,608.3719482421875,609.4152221679688,608.7285766601562,607.8828735351562,606.8861694335938,603.6046142578125,602.3270874023438,603.690673828125,605.2921752929688,603.819580078125,600.2763671875,596.2908325195312,592.2923583984375,588.6801147460938,586.2919921875,584.7210693359375,583.9578857421875,583.0617065429688,582.9947509765625,582.9510498046875,581.7550659179688,580.7452392578125,579.98291015625,579.4124145507812,579.4575805664062,579.9190063476562,579.9508666992188,580.6904907226562,581.4973754882812,583.7803955078125,583.81103515625,584.239013671875,586.172119140625,589.814208984375,590.7591552734375,590.7415771484375,592.9237670898438,595.57861328125,598.7352905273438,600.6519775390625,601.577880859375,601.0478515625,603.0496215820312,601.5317993164062,600.7240600585938,599.52197265625,598.1027221679688,596.599609375,595.5484619140625,595.6166381835938,596.7275390625,600.41259765625,600.8599853515625,709.0549,709.3982,707.67566,707.65063,708.4335999999998,707.9863,707.6640599999998,707.74426,707.9371000000001,707.8357,707.97845
768.06323,765.7036,764.6912,762.91345,762.61847,760.33594,759.85455,758.18884,757.48114,755.9965,755.4047,754.1971,752.4121,751.9058,751.1567,750.4874,748.9614,747.89465,747.4249,745.6831,745.0129,744.50037,743.7734,742.2703,614.5173950195312,615.701416015625,614.3869018554688,611.8828125,609.7521362304688,607.8839111328125,609.4813232421875,608.1273803710938,610.3515625,610.543212890625,609.0575561523438,608.0691528320312,607.7451171875,609.0877075195312,609.4932861328125,607.883056640625,607.1132202148438,605.5715942382812,602.9970703125,603.93994140625,605.0630493164062,602.1207885742188,598.7432861328125,594.9990844726562,590.5238037109375,587.8910522460938,585.8956298828125,583.6533203125,583.6671752929688,583.2796630859375,583.1013793945312,582.9034423828125,582.3590087890625,581.9002075195312,581.097900390625,580.0467529296875,579.9916381835938,579.7208251953125,579.48388671875,580.1438598632812,580.9713745117188,582.805908203125,582.7980346679688,582.8678588867188,584.4144897460938,587.846435546875,588.755615234375,589.430908203125,589.9111938476562,592.8618774414062,596.7119140625,600.3939208984375,599.1455078125,603.7421875,603.572509765625,602.3151245117188,600.7044067382812,599.3639526367188,597.599853515625,595.7484130859375,594.8651123046875,595.6663818359375,596.370361328125,598.1878051757812,601.011962890625,707.49976,707.61053,707.7342,707.03204,707.4242000000002,707.27783,707.751,706.9075,706.9998,707.2781,707.1758
765.7389,765.3477,763.3727,762.6752,761.8759,760.1697,759.4705,757.94104,756.1623,755.0739,753.97504,752.78094,751.84686,751.0741,750.59357,748.45795,747.3784,746.9645,746.5182,745.02124,743.1497,743.6767599999998,742.36743,616.2774047851562,618.3665161132812,615.1041870117188,612.0144653320312,614.6229858398438,611.9071655273438,610.2332763671875,610.7377319335938,610.2103271484375,610.1278076171875,610.3177490234375,610.2931518554688,608.4168701171875,606.7073974609375,607.42822265625,609.6682739257812,607.8674926757812,606.3794555664062,606.4468994140625,603.7008666992188,604.604248046875,603.8522338867188,599.6196899414062,597.056396484375,593.654296875,590.5220336914062,587.7810668945312,585.2196655273438,583.645263671875,583.3375854492188,583.6542358398438,583.3408203125,583.1561889648438,583.0806884765625,583.1128540039062,583.1988525390625,583.1166381835938,581.9988403320312,580.8522338867188,579.9321899414062,580.0938720703125,580.5726318359375,582.0349731445312,581.649169921875,582.2821655273438,583.4884643554688,584.8963012695312,586.0355224609375,587.0196533203125,588.3115844726562,588.6282958984375,593.922119140625,598.1265869140625,597.62841796875,603.9126586914062,602.8643798828125,602.2025756835938,600.2616577148438,598.58349609375,597.1953125,595.3339233398438,594.977783203125,595.3240966796875,596.509765625,598.6134643554688,600.9579467773438,706.8668,706.2836,705.5249000000001,705.8140000000001,706.7929000000001,706.468,706.7648299999998,705.8497,706.009,706.5862400000001,706.8616
766.16956,764.30884,763.7289,761.9386,760.6137,759.17773,757.6957,757.3215300000002,755.4179999999999,754.9054,752.8553999999999,753.17224,751.45325,750.06494,749.70215,748.41046,746.9707600000002,745.3814,745.2799,744.43854,744.0245,742.8213500000002,741.9146,618.5410766601562,619.2673950195312,616.8536376953125,611.2116088867188,609.4589233398438,613.0691528320312,612.0103759765625,610.4649658203125,611.9352416992188,610.8339233398438,611.101318359375,609.5501098632812,608.8866577148438,606.9036254882812,606.0764770507812,609.0360717773438,607.267578125,606.0862426757812,607.6740112304688,604.346435546875,603.5604248046875,601.006103515625,598.1171875,596.1995849609375,592.7904663085938,590.1590576171875,587.5342407226562,585.464599609375,585.8637084960938,585.4970703125,585.7493286132812,584.8390502929688,585.3807373046875,586.11865234375,587.26513671875,587.479248046875,587.0232543945312,586.9368286132812,585.3928833007812,582.0931396484375,581.61181640625,581.5943603515625,581.4937133789062,581.1121215820312,581.5277709960938,583.0753173828125,583.33349609375,584.2616577148438,585.321044921875,587.3082275390625,590.7380981445312,592.2508544921875,596.2389526367188,596.6089477539062,598.1405029296875,601.6287841796875,601.1499633789062,599.579345703125,597.77490234375,597.0882568359375,596.1007080078125,595.248779296875,595.474365234375,596.9111328125,598.37451171875,600.3411254882812,705.64667,706.30115,706.0332,705.9738,705.53406,705.4544,705.33856,705.9249,705.13214,705.6779,706.0420999999999
765.1901,763.65247,762.2832,760.6795,759.7816,757.7977,757.5503000000001,756.1492,754.4551,753.5981400000001,753.1864,751.8451,750.8847000000001,748.7795,748.0591400000001,747.5808,746.8667600000001,746.5048,743.6564,742.8105,742.3743,741.7042000000001,741.0938,619.872802734375,619.63134765625,617.1945190429688,614.320068359375,610.6531982421875,612.0316772460938,614.37060546875,614.5003662109375,614.5665283203125,612.1549682617188,610.5860595703125,608.1731567382812,607.9928588867188,607.4183959960938,605.4776611328125,607.9868774414062,605.9960327148438,606.1883544921875,607.2632446289062,603.9349365234375,601.2742309570312,598.2200317382812,595.846435546875,594.0739135742188,592.2979125976562,590.229248046875,588.1791381835938,587.551025390625,587.1851196289062,586.388916015625,586.9984130859375,585.5375366210938,585.8673095703125,587.0050048828125,587.2562255859375,588.7943725585938,590.6976928710938,589.3885498046875,588.1853637695312,585.22314453125,583.4425048828125,582.0589599609375,580.8531494140625,580.4970092773438,581.7841796875,583.1932983398438,583.0016479492188,583.4127807617188,584.219482421875,586.0624389648438,589.370361328125,592.2465209960938,594.6127319335938,596.8017578125,596.9602661132812,599.4152221679688,599.3961181640625,598.9426879882812,597.9721069335938,596.9807739257812,596.7510375976562,596.015869140625,596.14990234375,597.3994140625,598.5599975585938,600.922119140625,705.2071,705.59174,704.60095,704.4727,705.019,704.5065999999999,704.9163,705.37036,705.2052000000001,704.83167,704.6716000000001
764.8308,762.9258400000001,761.8601,760.3321,759.557,757.5424,756.4768000000001,755.4525,754.0448000000001,753.39294,752.1916,751.6576,749.7742,748.8237000000001,748.352,747.5699499999998,745.9387000000002,745.68585,743.5348999999999,742.97784,742.2929999999999,741.114,618.78271484375,617.9957275390625,618.0783081054688,614.7883911132812,614.7666625976562,610.9410400390625,611.1467895507812,611.9095458984375,611.8050537109375,610.4500122070312,611.3356323242188,611.0675659179688,607.0961303710938,607.2190551757812,607.441162109375,606.2859497070312,606.9834594726562,605.9676513671875,606.8543701171875,605.6372680664062,601.2463989257812,598.1239624023438,595.7891845703125,594.0242919921875,591.835205078125,591.313232421875,590.1007690429688,588.8597412109375,587.8589477539062,587.8768920898438,586.7411499023438,586.2442626953125,585.8016357421875,585.9878540039062,587.0552978515625,588.7857666015625,589.5053100585938,591.833251953125,592.0135498046875,589.9135131835938,587.5130004882812,585.1972045898438,582.1761474609375,580.6091918945312,580.666259765625,581.601806640625,583.6480102539062,582.7372436523438,583.7254638671875,584.124267578125,586.4815673828125,588.8938598632812,591.1753540039062,593.2720336914062,595.7853393554688,597.4393310546875,599.0238647460938,599.32470703125,599.57470703125,598.9228515625,598.0459594726562,597.4328002929688,597.6180419921875,597.1798706054688,597.906982421875,600.0096435546875,602.246826171875,704.1624,703.89374,703.6828,704.1981,704.42316,704.50775,704.3300999999999,704.7728,704.4386,704.09094,703.9659
763.5686,762.90186,760.44183,759.83923,758.2228,757.2909,755.90216,754.6842000000001,753.9288999999999,752.2974,751.56464,749.87036,749.2350999999999,747.38336,747.297,746.6552,744.59344,744.778,743.53467,741.3711,740.6655,739.28253,618.182861328125,617.9215698242188,615.4567260742188,614.2131958007812,614.4581298828125,612.874755859375,610.6879272460938,611.504150390625,612.3012084960938,611.7364501953125,612.130859375,609.0570678710938,609.1835327148438,606.0944213867188,606.4248657226562,605.7210083007812,606.275390625,606.29638671875,606.2138061523438,602.3587036132812,598.001220703125,595.323974609375,592.16455078125,591.0068359375,589.8751831054688,589.7445068359375,589.8262939453125,588.7471313476562,587.4873046875,587.4489135742188,586.7933959960938,585.2047729492188,585.7615356445312,587.0714111328125,587.3508911132812,588.849853515625,590.20654296875,592.0345458984375,592.7108764648438,591.6925048828125,588.5234375,586.1215209960938,581.9453735351562,580.4816284179688,580.546875,581.9717407226562,584.4172973632812,586.15234375,587.5450439453125,588.7706909179688,589.5888061523438,590.8021850585938,591.5101928710938,593.31787109375,595.8121948242188,599.7424926757812,601.0465698242188,601.7212524414062,601.5283203125,600.7168579101562,599.4544677734375,599.2600708007812,599.2626953125,599.6471557617188,598.6099243164062,601.9781494140625,703.998,704.19867,703.3476,703.888,703.9007000000001,703.2563,703.97565,704.20715,703.45197,703.8143,704.1742,703.1316000000002
763.0201999999999,761.103,759.87274,758.66876,758.204,756.61456,755.12354,754.2550700000002,752.9834600000002,751.91595,751.6105300000002,749.60724,748.9669000000001,747.10284,745.8459500000001,745.2813000000001,744.1101000000001,743.1858,742.8909999999998,740.82104,740.44196,739.66223,614.9531860351562,618.339111328125,614.6568603515625,613.0167846679688,613.3716430664062,612.7498168945312,612.5481567382812,612.6557006835938,613.6040649414062,611.374755859375,612.5354614257812,611.0663452148438,608.5800170898438,608.4168701171875,607.04296875,606.74853515625,606.2494506835938,605.8359375,603.0258178710938,599.0757446289062,594.9514770507812,591.3213500976562,588.8225708007812,587.8256225585938,586.9536743164062,586.858154296875,587.8003540039062,587.2911376953125,585.8165893554688,585.52978515625,585.87646484375,584.45166015625,585.3689575195312,586.02294921875,587.973876953125,589.1400146484375,591.8585815429688,592.3367309570312,592.38232421875,591.6483764648438,589.1508178710938,586.077880859375,581.99658203125,580.0178833007812,581.6554565429688,584.7032470703125,588.204345703125,589.7980346679688,589.6951293945312,589.9125366210938,589.683837890625,589.9088745117188,590.8409423828125,593.8536987304688,596.6433715820312,599.8995361328125,601.4528198242188,602.5970458984375,602.9969482421875,601.9033203125,601.8826293945312,601.0001220703125,599.5122680664062,598.9403686523438,602.8851928710938,600.8619995117188,703.2511999999999,702.7071,703.0602,701.8055000000002,702.1756,702.97766,702.68164,701.8296499999999,702.9938400000001,702.9463,702.0198,702.5703
762.3785399999999,761.01764,758.9049,757.86615,757.5964,756.5630999999998,754.31494,753.2563500000001,752.5743,751.4094,750.5179,749.01416,747.8923299999999,746.75696,746.03937,744.9406999999999,743.34204,742.4514,742.05536,741.22766,739.9352,738.5914,614.3750610351562,617.9949340820312,614.101318359375,612.4868774414062,611.8232421875,611.7027587890625,612.6543579101562,613.74169921875,613.3478393554688,611.3463745117188,611.9781494140625,613.0737915039062,612.3364868164062,608.6167602539062,607.6527709960938,606.1834106445312,605.5924072265625,604.1324462890625,599.65673828125,595.5969848632812,591.41259765625,588.1864013671875,586.4349975585938,585.3319091796875,584.4063720703125,583.8900146484375,584.62109375,585.165771484375,584.4119262695312,583.8223266601562,584.0269775390625,584.3761596679688,585.2329711914062,585.0601806640625,587.9820556640625,590.06884765625,592.3834838867188,591.82421875,591.20556640625,590.8424072265625,588.4445190429688,585.5744018554688,581.2366943359375,579.7064819335938,581.1737060546875,585.1214599609375,586.5479125976562,587.9935913085938,587.8793334960938,588.5203857421875,588.9953002929688,589.7486572265625,590.5438842773438,592.9420776367188,597.6564331054688,598.8135986328125,601.3522338867188,602.5426025390625,599.6179809570312,596.9902954101562,597.6715087890625,598.2808227539062,598.9667358398438,601.5186157226562,601.1288452148438,602.8096923828125,702.28876,702.169,702.1206,701.9365,701.6203,702.4267,703.3778,702.8267,702.13464,701.65436,701.9522,702.237
760.7054,759.33405,758.7729,757.55334,756.1906999999999,755.4417,753.8739,752.51086,752.3652,751.433,749.8342,748.76605,746.9618,745.073,744.1505,744.6299999999999,743.30664,741.8916,741.1917,740.36346,739.5333,738.3931,617.1705322265625,616.9905395507812,615.6690673828125,614.2160034179688,612.3611450195312,611.3348388671875,611.9564208984375,613.4234619140625,611.9262084960938,610.4615478515625,611.977294921875,612.1126098632812,612.2322387695312,608.7886352539062,606.3613891601562,604.3997192382812,603.1452026367188,600.6211547851562,596.622314453125,593.3915405273438,588.9440307617188,586.0394287109375,584.75341796875,583.1256713867188,582.6312866210938,581.5097045898438,581.61376953125,582.2482299804688,582.7410278320312,582.931640625,583.2404174804688,583.8843383789062,585.0336303710938,585.1117553710938,587.4560546875,589.3204345703125,591.0020141601562,590.5360717773438,590.2625122070312,589.0333251953125,586.1773681640625,583.548095703125,579.7672729492188,579.436767578125,580.9247436523438,583.7337036132812,586.2755126953125,586.7694091796875,587.9152221679688,588.525146484375,589.684814453125,590.4795532226562,591.2324829101562,592.992919921875,596.7193603515625,597.0263671875,598.2963256835938,597.7383422851562,597.2291259765625,597.2366333007812,597.6124877929688,598.4241943359375,599.4616088867188,600.299560546875,602.1836547851562,604.883544921875,701.6988000000001,701.1451,702.1335999999999,701.2714,700.6921,702.06323,701.0594000000001,701.3092,701.6747399999999,702.0372,700.9652,700.81006
761.1474,758.663,757.73566,756.6477,756.0267,753.6983,753.2977,752.3044,751.0953,749.518,748.7951,747.7078,746.3533,744.9495,743.98376,744.1215,742.4422,741.071,740.7362,739.5442,739.0702,737.3771,617.6461181640625,617.4287109375,616.2208862304688,613.9711303710938,613.3059692382812,613.72119140625,612.2042236328125,612.5733032226562,609.3187255859375,611.0862426757812,611.2249755859375,610.3595581054688,610.0029296875,608.30029296875,603.724609375,602.4572143554688,601.0194702148438,597.7066650390625,594.0380249023438,590.5164794921875,586.869140625,584.731201171875,583.1732788085938,581.327880859375,580.8456420898438,579.6972045898438,579.3424072265625,579.23974609375,580.4275512695312,581.9297485351562,582.779296875,583.537841796875,584.9003295898438,585.95849609375,587.0901489257812,588.8426513671875,589.8301391601562,589.3165283203125,588.1005249023438,587.018310546875,583.3773193359375,580.6035766601562,578.5850219726562,579.05712890625,580.6682739257812,583.4509887695312,585.0311889648438,586.1559448242188,587.2388305664062,588.179931640625,589.2932739257812,590.2642211914062,593.1962280273438,594.4987182617188,596.6441040039062,599.798828125,599.6746826171875,598.394287109375,598.78759765625,598.3163452148438,598.68994140625,599.2352294921875,600.6349487304688,601.0476684570312,602.4348754882812,606.054443359375,701.3298,700.81915,701.0935,700.8878,700.5499,701.4964,700.93085,700.6521,701.23694,700.75684,699.9775,700.8932500000001
759.7148400000001,758.4357,756.90906,756.50714,755.66833,753.9633000000001,752.5192,751.7298,750.15796,749.7592,747.9823999999999,747.81036,745.9033,744.8019,744.2215,743.58966,742.3914,740.4346,740.4281000000001,738.3137999999999,736.80634,736.8925,617.130859375,618.0117797851562,615.9786987304688,613.4288330078125,612.991455078125,612.9395141601562,613.2742919921875,610.4998168945312,609.5740356445312,610.011962890625,608.765869140625,607.648681640625,606.9299926757812,607.1008911132812,603.5693359375,600.7853393554688,599.690185546875,595.9930419921875,592.5814819335938,588.363037109375,585.4966430664062,583.4861450195312,582.0418701171875,580.45703125,579.4833984375,578.3223876953125,578.1929931640625,577.9718017578125,578.67041015625,579.7476196289062,581.4310913085938,583.0439453125,584.17041015625,585.5233764648438,586.4181518554688,587.74169921875,588.0133056640625,586.6047973632812,585.5275268554688,583.7939453125,580.6270141601562,577.823486328125,576.7344970703125,577.4002685546875,579.7360229492188,583.1793823242188,584.5202026367188,585.3626098632812,586.4715576171875,587.693115234375,589.2042236328125,590.934814453125,593.5453491210938,595.4441528320312,596.0316162109375,598.0877075195312,599.1895751953125,599.0438842773438,600.0489501953125,599.7322387695312,600.0701904296875,600.724853515625,601.59521484375,602.1165161132812,601.7030029296875,602.0521240234375,700.4565,700.32965,699.583,699.5382,700.10095,699.86945,699.4678999999999,700.5055,700.24866,700.398,699.7036,700.4347
759.4475,757.80896,757.18115,755.29834,754.14154,752.6976,751.604,750.2819999999999,749.9495,749.22345,747.833,746.7637,744.87683,743.6033299999999,743.68176,742.5103,740.9842000000001,739.7092,738.6729,738.3652,737.30707,736.2724000000001,735.28394,618.818359375,616.3432006835938,615.133544921875,613.97021484375,613.2352905273438,612.124755859375,610.4797973632812,610.137451171875,609.8966064453125,606.8621826171875,607.305419921875,606.9436645507812,607.2686767578125,603.6190795898438,599.7979736328125,599.3143920898438,594.8505249023438,590.809814453125,587.3322143554688,584.3450317382812,582.738525390625,581.0421752929688,579.0734252929688,578.351318359375,577.3067626953125,577.0925903320312,576.9994506835938,577.1224365234375,577.9197998046875,579.6898193359375,581.66650390625,582.7490234375,583.9395141601562,584.6316528320312,584.8976440429688,584.5717163085938,583.1217651367188,582.7896728515625,580.7191772460938,577.9400024414062,576.087890625,575.0546875,576.353515625,578.6286010742188,581.5029296875,584.2305297851562,584.9810180664062,585.204345703125,586.259765625,588.3905029296875,591.6453247070312,594.830322265625,596.4602661132812,595.3456420898438,596.2716674804688,600.2644653320312,600.97998046875,601.2081909179688,601.2322387695312,601.4813842773438,603.6482543945312,603.6656494140625,602.1345825195312,602.9700927734375,700.63184,699.3057999999999,699.7054,699.3758,698.5078,700.0651,700.63403,699.6652,699.8643,699.9005,698.8885,699.01154,699.7860000000001
758.3355,757.4409,755.8405,754.5455,753.51086,752.3924,752.1425,749.8965,749.69824,748.1984,746.88525,745.3895,745.0904,743.07904,741.58685,741.4468,740.08673,739.6645,738.4778,736.874,736.5076999999999,735.89154,734.8338,616.2410888671875,616.2457885742188,615.1248779296875,613.5179443359375,607.5933837890625,612.4592895507812,610.6539916992188,609.7307739257812,608.0970458984375,606.8455200195312,608.2214965820312,608.65087890625,608.0828247070312,603.0220947265625,600.0189819335938,598.9315795898438,594.1815185546875,590.162109375,586.246826171875,582.9143676757812,581.8131713867188,580.0624389648438,578.2913818359375,577.4136352539062,576.279541015625,575.9570922851562,575.5939331054688,575.9293823242188,576.9818115234375,577.4515991210938,579.2189331054688,580.3118896484375,581.1530151367188,582.0088500976562,582.067626953125,581.9852294921875,580.6885375976562,579.3515625,578.1341552734375,576.1686401367188,573.739990234375,573.36669921875,574.9976196289062,577.3550415039062,580.5589599609375,582.6510009765625,583.8336791992188,584.3746948242188,585.3296508789062,587.2440185546875,591.456298828125,596.9053344726562,596.8711547851562,599.2398071289062,600.5748901367188,601.878662109375,601.8900146484375,601.6484985351562,604.2005615234375,607.8008422851562,607.6378784179688,605.7938232421875,602.2908325195312,699.46893,699.4452,699.21783,699.0897,698.9075,697.9511,698.57074,698.90424,699.07764,698.6449,697.96826,698.02795,698.3752400000001,698.2039
758.46497,756.9581,755.4047,754.6145,753.71356,752.7385000000002,751.54785,749.9481000000001,748.402,747.51776,746.707,745.22626,744.90875,742.51825,742.7378999999999,740.3202,739.81384,739.7794,738.0205,737.0902,735.4647,735.3932,734.2005,732.9246,615.9266357421875,614.0795288085938,609.9473876953125,606.6942138671875,613.0833740234375,610.6171875,609.1851196289062,607.5122680664062,607.1223754882812,608.7269897460938,608.9003295898438,608.635009765625,603.3301391601562,600.032470703125,598.6095581054688,593.916748046875,589.6267700195312,585.4708862304688,582.37255859375,580.8882446289062,578.95751953125,577.4556274414062,576.3936767578125,575.4339599609375,574.7156982421875,574.513916015625,575.0140380859375,575.46728515625,576.3175659179688,577.4493408203125,578.1793823242188,578.8034057617188,579.4088134765625,579.9119873046875,579.409423828125,578.4849243164062,577.5289306640625,576.3810424804688,574.1159057617188,572.2509155273438,571.813720703125,573.1705932617188,575.4835205078125,579.28857421875,580.8897094726562,582.6300048828125,583.4024658203125,584.7552490234375,586.2217407226562,593.4691772460938,597.0279541015625,600.9218139648438,598.8807373046875,601.8845825195312,602.5184326171875,602.34326171875,604.741455078125,604.3848266601562,609.56982421875,610.0728759765625,605.1768798828125,698.2567,699.4059400000001,698.92004,698.2853,698.7086999999999,697.83734,698.3020999999999,698.00964,698.9215,698.3771,697.6254,697.8031,697.6959999999999,698.0271600000001,698.4734000000001
758.5878,756.40796,754.9327,753.3221000000001,752.67346,750.8203000000001,750.4681,749.37787,747.5428999999999,747.1355,746.2295,744.5892000000001,743.8165000000001,742.7072,741.3023699999999,740.1147000000001,740.2011,737.7382,737.33093,735.9107,735.8132,735.0923,734.2906500000001,732.3281,615.1115112304688,611.62890625,608.8951416015625,607.0692138671875,611.13916015625,609.9844970703125,608.6642456054688,606.4324340820312,607.1171264648438,608.1705932617188,609.0801391601562,608.4570922851562,604.317138671875,599.698974609375,597.5552978515625,593.4529418945312,589.2208862304688,584.9049072265625,581.64892578125,579.64794921875,577.6178588867188,576.7346801757812,575.4344482421875,575.0437622070312,573.8888549804688,573.787841796875,574.2274780273438,574.0889892578125,575.3043212890625,576.4481811523438,576.800537109375,577.5164794921875,577.6932373046875,578.042236328125,577.5827026367188,576.5332641601562,575.3375244140625,574.2923583984375,571.8563232421875,570.0623779296875,570.0703735351562,571.70166015625,573.6394653320312,577.8165893554688,579.9848022460938,582.215087890625,582.8007202148438,583.8536987304688,585.4942626953125,592.5072021484375,596.9088134765625,600.7576904296875,600.9098510742188,602.9635009765625,603.4132080078125,604.6126098632812,606.710205078125,603.9326171875,602.0748901367188,697.9603,697.90845,697.9411,698.36456,697.48395,697.2909,698.535,697.9404,696.80115,696.97473,697.635,697.76636,697.7984000000001,697.1684600000001,697.37573,697.7356,696.9184
756.4243,756.07733,754.3728999999998,753.23846,752.5192,750.42126,749.6828,747.38763,747.35614,745.9011,745.03735,744.08374,742.6158399999999,741.61536,740.7926,739.75214,737.53174,736.8181,736.539,735.29004,734.1787999999999,733.6947,732.8958,731.8003999999999,614.070556640625,610.2081909179688,606.7737426757812,607.08447265625,608.9129028320312,608.6949462890625,609.4520874023438,605.6585693359375,604.8970947265625,605.9395141601562,608.2831420898438,606.8636474609375,603.1666259765625,599.4974365234375,596.912109375,592.597412109375,588.5410766601562,584.2874755859375,580.9463500976562,578.9664916992188,576.6936645507812,576.0234375,574.8251953125,574.139404296875,572.9364624023438,572.8333129882812,573.3523559570312,573.4005737304688,573.9893188476562,574.9586791992188,575.5083618164062,576.0811767578125,576.4664306640625,576.32958984375,576.0764770507812,574.5009155273438,573.3131713867188,570.9998779296875,568.7567749023438,567.921142578125,568.2647705078125,569.8790893554688,570.8427124023438,576.2626342773438,578.814208984375,581.3057861328125,582.4042358398438,582.9558715820312,584.3699340820312,587.70068359375,595.3754272460938,599.7269287109375,601.7698364257812,604.5376586914062,602.943115234375,606.6148681640625,605.0343627929688,698.42706,698.177,698.3119999999999,697.25885,696.9451000000001,697.9556,698.0827,697.3369,697.6038,696.5555,696.90515,697.01556,696.8053,697.5256,696.684,696.9876999999999,696.58325,696.61975,696.5069600000002
756.29364,754.8288,753.435,752.9885,751.9682,750.84283,748.4468400000001,747.8404,746.9282,745.0623,744.3370400000001,743.6798999999999,741.9599,741.56384,740.5119,739.13654,737.6937,737.3398,736.4718,735.1128,734.32275,733.0591,732.5127,731.614,729.79895,611.6664428710938,607.2329711914062,608.2836303710938,607.5841674804688,607.1158447265625,607.3419799804688,606.5751342773438,604.1491088867188,602.8019409179688,600.4344482421875,598.4301147460938,600.463623046875,598.3720092773438,596.2997436523438,591.9801635742188,587.617431640625,583.9302368164062,580.235107421875,578.290283203125,575.9823608398438,575.2018432617188,574.2804565429688,573.366943359375,571.9183349609375,572.2698364257812,572.2933959960938,572.1573486328125,573.1376953125,573.5697021484375,574.427978515625,575.061767578125,575.7175903320312,575.3352661132812,573.3458251953125,571.9380493164062,569.7540893554688,567.873046875,565.6859130859375,565.9153442382812,566.3975830078125,567.6199951171875,569.106201171875,571.5803833007812,576.7784423828125,579.5077514648438,580.8433837890625,582.1200561523438,583.6559448242188,586.0728149414062,591.2368774414062,596.6431884765625,600.8724975585938,602.171142578125,607.9458618164062,606.1237182617188,698.12994,698.5362499999999,697.85834,696.8003999999999,697.18823,695.6872599999999,697.0608500000001,696.7793,696.79694,696.3498500000001,696.3077,696.35065,696.2131,696.31464,697.2547,696.17303,697.3515,696.3966,695.7657,695.85004
755.5008,754.17633,753.0210999999999,752.2776,751.5605,749.0305,748.63245,747.29156,746.5165,745.2249,743.72534,742.26715,741.5717,740.2767,740.0570700000001,738.9202,737.67163,736.63116,735.77985,734.2222000000002,733.7724000000001,732.8549,731.9284700000001,730.72266,728.7164,613.3125,608.0017700195312,607.6165771484375,606.8287963867188,605.0277099609375,605.5836791992188,604.757080078125,603.314453125,601.2728271484375,598.2902221679688,595.35498046875,598.1063842773438,596.842041015625,594.6323852539062,591.3320922851562,586.4608764648438,582.9989013671875,579.5656127929688,577.9476318359375,575.328125,574.6835327148438,573.1954956054688,572.2575073242188,571.2705078125,571.1887817382812,571.4298095703125,571.2656860351562,572.2239379882812,572.7015991210938,573.5689086914062,574.441162109375,574.8272094726562,573.1632080078125,571.0428466796875,567.9723510742188,565.8289794921875,564.8931274414062,564.03515625,564.0676879882812,564.690673828125,565.7362060546875,567.768310546875,569.9321899414062,574.5950317382812,577.4104614257812,579.1455688476562,580.5484008789062,582.4685668945312,584.5547485351562,587.80126953125,592.7651977539062,597.9054565429688,602.7508544921875,606.0325317382812,604.863525390625,697.70105,697.4861,696.90814,696.82104,696.36884,696.6318,696.0857,696.2543,696.0105,695.7508,695.1142,695.4483600000001,695.6471,694.5594,695.9369000000002,695.3735,695.1988,694.95996,695.0959,694.8004000000001
754.7400500000001,753.5653,752.829,752.2378000000001,750.34863,749.9149,748.4628,745.77124,745.4731000000002,745.0634,744.2238,742.2779,739.95166,739.5113000000001,739.5345,738.5136,737.11816,736.2460999999998,734.7213,733.66693,733.1061,732.3681,730.8054,730.3718000000001,728.95465,613.14892578125,611.81689453125,607.2992553710938,605.9007568359375,605.4266357421875,603.9606323242188,603.798095703125,601.5511474609375,599.81640625,597.0270385742188,593.9490966796875,597.4522705078125,596.2945556640625,593.4158325195312,590.0101928710938,585.5576782226562,581.7366333007812,579.0830078125,577.08984375,574.930419921875,573.6036987304688,572.6036376953125,571.1744995117188,570.7974243164062,570.3104248046875,570.3316040039062,570.6624145507812,571.26123046875,572.2408447265625,572.7633666992188,573.2874755859375,573.1165771484375,572.3197631835938,569.332763671875,567.6303100585938,565.1915893554688,563.965087890625,563.341796875,563.6892700195312,564.1961669921875,564.9574584960938,567.6007690429688,569.6008911132812,572.7996826171875,575.66162109375,577.1001586914062,579.2655029296875,580.9915161132812,582.9159545898438,585.5726318359375,589.8394165039062,597.6699829101562,604.995849609375,609.3846435546875,604.7298583984375,697.31195,696.99615,696.575,696.4252,696.501,695.70264,696.6913999999999,695.4609400000002,695.2421000000002,695.09357,695.02515,694.9622999999999,694.8323400000002,695.2584,694.8371,694.777,694.5835999999999,694.674,695.1135,694.9451999999999
754.6167,753.5105599999999,752.6478,750.9365,750.29144,748.4229,747.7311,745.9012,744.7955,743.96234,743.144,741.3761999999999,740.10785,739.57306,738.15466,737.94464,736.2951,734.7785999999999,734.22107,733.5119,732.9691,732.2415,731.29913,729.7415,727.8679999999999,727.57837,610.0966796875,607.052001953125,605.1181640625,604.953369140625,604.7261962890625,603.5034790039062,601.0248413085938,600.197021484375,596.2063598632812,593.9473266601562,598.2804565429688,596.0955200195312,592.0714111328125,588.3561401367188,584.4324951171875,581.1142578125,578.2595825195312,576.3047485351562,574.1446533203125,572.6649780273438,571.770751953125,570.5203857421875,569.9807739257812,569.6854248046875,569.3233032226562,569.6580200195312,570.3487548828125,571.3815307617188,572.008544921875,572.5428466796875,571.823486328125,571.7093505859375,570.6663818359375,570.9603271484375,568.3129272460938,564.9050903320312,563.4056396484375,563.9985961914062,564.7156372070312,565.8065795898438,568.7186889648438,569.48779296875,571.4448852539062,574.041748046875,575.9122314453125,578.16943359375,579.342041015625,581.28125,584.5331420898438,588.2433471679688,599.1005249023438,606.499755859375,606.0701904296875,695.9954,697.0026,696.28394,695.1872000000001,695.6883,695.25806,695.05536,695.3458,694.5527,695.09906,695.3135399999999,694.02356,694.12823,694.2129,694.5462,694.9207,694.4083,694.3715,693.9929,693.99164,694.6522
754.5958,753.2452,751.7319,751.29834,750.5116,748.32684,747.4784,745.76074,745.24274,743.6120600000002,742.5889,741.5277000000001,739.55115,738.9167499999999,736.9178999999999,737.07214,735.656,734.3986,733.6332,732.2558000000001,732.6689,731.0158,730.5172,729.63385,728.0426,726.6633,610.80078125,607.3167724609375,605.0722045898438,604.60546875,604.5790405273438,602.7718505859375,598.76318359375,602.4930419921875,596.8961181640625,594.1641845703125,599.9509887695312,595.3833618164062,590.8812255859375,586.9682006835938,583.203857421875,579.81689453125,577.454833984375,575.2579345703125,573.1682739257812,572.2149658203125,570.56640625,570.04248046875,569.2327270507812,568.8409423828125,568.5682983398438,568.9086303710938,569.6455078125,570.2908935546875,570.7388916015625,571.32470703125,570.6065673828125,569.8921508789062,569.722900390625,570.1770629882812,570.243896484375,566.6806640625,563.4124755859375,565.5404663085938,565.5946044921875,565.36474609375,570.20654296875,569.1215209960938,570.7600708007812,572.8721923828125,574.846923828125,576.1751098632812,577.613037109375,580.565673828125,584.4266967773438,589.4120483398438,604.9158325195312,606.7261352539062,605.5530395507812,696.62103,694.9673,695.56067,695.19543,694.84357,694.5232,694.6673599999999,694.48254,694.0696,694.0003,694.183,693.9949,693.4576400000001,694.441,693.3342,694.38873,693.7541,692.9867,693.4058,693.6421,694.418
753.6615,752.2995000000001,751.13696,750.7822,748.2941,747.8042600000001,746.1591,746.19727,743.45715,742.3293,742.229,740.5975,739.6133399999999,738.3233,737.2302,736.2836,735.9277299999999,734.8616300000001,733.3278,732.8245,731.5183,730.7608,730.10986,729.0285,727.9427499999999,727.0325,611.280517578125,607.7305297851562,605.2356567382812,605.0238647460938,604.37158203125,601.6515502929688,598.5955200195312,595.8352661132812,597.6217041015625,595.2255249023438,599.569091796875,593.6594848632812,589.3921508789062,585.605712890625,581.9056396484375,579.1728515625,576.684814453125,574.1758422851562,572.4314575195312,571.4492797851562,569.8281860351562,569.1433715820312,568.248779296875,567.5167236328125,567.605224609375,567.8971557617188,568.4840087890625,568.7872314453125,568.8864135742188,569.1637573242188,569.1399536132812,569.1602172851562,569.3323974609375,568.7833862304688,568.2430419921875,566.906005859375,564.3023681640625,562.3978881835938,562.5554809570312,562.9501342773438,567.6577758789062,568.3970336914062,570.3292846679688,572.3973388671875,574.019775390625,575.8212280273438,576.6398315429688,580.0855712890625,584.7174682617188,590.4581909179688,608.1926879882812,606.9779052734375,695.3037,695.47363,695.14813,695.38763,695.1608,694.50476,694.1547,694.3336,693.9621999999999,694.51855,694.2537,692.9053,693.3072500000001,693.3604,693.2469000000001,692.78955,693.4102,693.7548000000002,692.9778,693.1549,693.38763,693.09845
753.6190999999999,752.4510499999999,751.6783,749.4699,748.58704,746.3581999999999,745.18463,744.67664,743.963,742.12036,741.2217,740.4308000000001,738.8896,737.90344,737.1473000000001,736.1675,735.4983500000001,733.5516,732.84265,731.16394,730.8054,730.2747,729.44434,728.008,726.6178,726.30475,611.3179931640625,608.6053466796875,606.6343994140625,606.1661987304688,604.376708984375,600.9583740234375,598.4635620117188,596.3253784179688,596.816650390625,594.1121215820312,597.280029296875,591.4715576171875,587.7390747070312,584.3704833984375,581.0900268554688,578.244873046875,575.2506713867188,573.3973388671875,571.99169921875,570.2484130859375,569.2553100585938,568.3451538085938,567.0670166015625,566.8157348632812,566.73046875,566.3740844726562,566.5470581054688,567.0408935546875,566.8289184570312,567.039794921875,566.482666015625,566.6359252929688,566.680419921875,565.7860717773438,565.6471557617188,565.7393188476562,565.4698486328125,562.7026977539062,563.62353515625,566.58740234375,568.5836181640625,569.1183471679688,570.959716796875,572.4280395507812,573.5155029296875,575.3526000976562,576.29248046875,579.2702026367188,585.395263671875,593.4896240234375,608.0545654296875,696.0934399999999,695.4798600000001,694.81274,694.51105,694.76324,694.1056000000001,693.4641999999999,694.4552,693.8472,694.1742,693.3522,693.2997,693.3442,693.0458999999998,692.9089999999999,692.8996,692.3332,692.4592,692.8103999999998,693.2556999999999,693.06116,693.0685,692.42633
752.5207,751.2396,750.6893,749.1014,748.161,746.9169999999999,745.30035,744.47784,743.395,741.7404999999999,741.1269500000001,739.9339599999998,738.17426,737.1743000000001,736.1857,736.6488000000002,735.39435,733.8875,732.88354,732.1524,730.81213,730.38586,729.1749,727.5651,726.92584,725.022,610.9550170898438,607.38330078125,609.5565795898438,607.2498779296875,604.1686401367188,600.9898681640625,598.1997680664062,596.792724609375,595.960205078125,595.7932739257812,593.3058471679688,589.283203125,586.2215576171875,583.0299682617188,579.7902221679688,576.857666015625,573.959716796875,572.5853881835938,571.4559936523438,569.5595092773438,568.8589477539062,567.4998168945312,566.6724853515625,565.8540649414062,565.6436767578125,565.373291015625,565.5010986328125,565.9268798828125,565.16845703125,565.5044555664062,564.4306640625,563.9813232421875,563.5556030273438,562.833984375,563.3418579101562,564.3499755859375,564.2172241210938,562.769287109375,564.7843627929688,568.3641357421875,568.7860107421875,569.5377807617188,570.8597412109375,571.9828491210938,573.4940185546875,575.2388305664062,576.4898071289062,579.450927734375,586.2935791015625,608.9939575195312,695.2315,694.03,694.3489,694.9375599999998,695.1415,693.8607,693.8068,693.8951399999999,693.5746,693.0055500000001,692.7369,692.4689,692.8364,693.2012,692.4954,692.3232,692.25256,692.7383,692.8666,692.6684,692.7398700000001,692.7962,691.93317,691.90344
752.4036,750.69653,749.6324500000001,748.6356,747.5055499999999,745.4462,744.7405000000001,742.7927999999999,742.3677399999999,741.16284,740.514,739.42554,737.8552,737.221,736.09924,735.0458000000001,733.9673,733.27185,732.3262,730.96265,730.0,730.1706,727.8606,727.46014,726.8096,725.62646,610.7814331054688,608.0906982421875,604.0064086914062,607.1075439453125,603.6127319335938,601.2196044921875,598.921875,597.5564575195312,596.440185546875,596.2702026367188,591.3801879882812,587.67919921875,584.4646606445312,581.4822998046875,578.4229736328125,575.8799438476562,573.6194458007812,572.1347045898438,570.6531372070312,569.0557861328125,567.9104614257812,566.8392944335938,566.1453247070312,565.3063354492188,564.7631225585938,564.7184448242188,564.556640625,565.4857177734375,563.8910522460938,563.5241088867188,562.2360229492188,561.3684692382812,559.9332885742188,560.4078979492188,560.6466674804688,561.7415771484375,562.2297973632812,561.9096069335938,564.52197265625,567.7296142578125,568.4599609375,569.567626953125,570.798828125,571.685791015625,573.4481201171875,575.3056030273438,577.2074584960938,578.7345581054688,594.7010498046875,694.2716,694.2031,694.422,693.7312,693.06635,694.4827,693.90906,692.4442999999999,693.4595,693.21466,692.2185,692.1558,692.6309000000001,692.36084,691.88214,691.71466,692.19165,691.6682000000001,691.3521000000001,691.6398300000001,691.9068,691.92444,691.7982,691.6967,691.4056
751.7239,749.9965,749.7395,747.9121,747.3181999999999,745.4676,745.2252,742.9373,742.4732,740.9349,740.1086,739.0572,737.04004,736.6048,735.06757,734.665,733.4947999999999,732.65796,732.2069999999999,730.4434000000001,729.56256,729.3219,728.7612,727.5093000000002,725.8155,724.87146,609.34619140625,608.09814453125,607.5272827148438,605.4583740234375,601.8734130859375,600.0153198242188,598.6940307617188,598.2865600585938,597.789306640625,596.4523315429688,590.284423828125,586.5059204101562,583.1234130859375,580.052978515625,577.602783203125,575.1188354492188,572.9287109375,571.8367309570312,569.582763671875,568.66650390625,567.4712524414062,565.8604125976562,565.314208984375,564.8721313476562,564.4254150390625,564.1754760742188,563.841064453125,565.0482177734375,563.62255859375,561.811279296875,559.9299926757812,558.909423828125,558.2213134765625,558.4601440429688,558.34814453125,558.2319946289062,559.6345825195312,560.6709594726562,563.3471069335938,566.50830078125,567.674560546875,569.5498657226562,570.8706665039062,572.0477294921875,573.8126831054688,575.6504516601562,580.1954345703125,584.1644287109375,606.4911499023438,693.99146,693.5951,694.0204,693.4677999999999,693.6303,693.19617,693.4646599999999,691.8667,692.75574,692.6209,691.3981,692.0361,691.7235,690.9289,692.0812,691.6481999999999,691.9502,691.3724,691.5823,691.177,691.7295,691.2564,691.6830400000001,691.71533,691.7550700000002
751.96387,750.2158,749.0899,747.6386,747.43,744.8427000000001,743.17676,743.2862,742.509,740.05646,739.7674,738.7664,736.3023699999999,736.23505,735.3961000000002,733.9918,733.2898,732.3541,731.6612,730.3193,729.0567599999999,728.46893,727.9661,726.3305,725.3504,725.0669,608.177734375,608.6854858398438,607.4423828125,606.023681640625,602.8732299804688,599.3901977539062,598.9979248046875,599.4276733398438,600.4392700195312,595.714111328125,589.6339721679688,585.9735107421875,582.8134765625,579.3314819335938,576.9737548828125,574.3496704101562,572.2465209960938,570.7380981445312,569.3946533203125,568.2674560546875,566.9865112304688,565.0558471679688,564.8748779296875,564.4295654296875,564.0108032226562,563.9443969726562,564.70361328125,564.601318359375,564.1427612304688,561.6717529296875,559.6190185546875,558.24658203125,558.3638916015625,557.5673217773438,557.5364379882812,557.2135620117188,558.173828125,559.0885009765625,561.9598999023438,565.5361938476562,567.3260498046875,569.2830200195312,571.09228515625,573.2451171875,575.4430541992188,577.0760498046875,583.0762329101562,590.473876953125,694.37994,693.4545,693.3803,692.85297,693.4256,692.16156,692.22485,692.5050999999999,692.47473,691.7442,691.4585,691.0521,691.9243,692.16425,691.21344,691.71704,691.3671999999999,691.0947,690.7869,690.97046,690.6392,691.22876,691.57263,690.9966,691.08014,690.5906400000001
751.2046,749.2663,748.71436,747.2175,746.3551,745.06134,743.01556,742.4061,741.7972,740.2711999999999,738.2311,737.9472699999999,736.4974,736.4764,734.9778000000001,734.1794400000001,733.4319500000001,731.8309999999999,730.9812,729.4776,728.4463500000002,727.12384,727.3555,726.32806,725.4766,723.9449,608.0724487304688,609.1399536132812,607.0621948242188,606.4039306640625,606.192626953125,602.5485229492188,602.2648315429688,599.8587036132812,600.7201538085938,595.5184326171875,589.4691162109375,585.6201782226562,582.447265625,578.9605102539062,576.2059936523438,574.324951171875,571.7731323242188,570.4207763671875,569.0069580078125,567.9512939453125,566.8535766601562,565.0291748046875,564.6946411132812,564.300537109375,563.7316284179688,563.8662719726562,564.2595825195312,564.2080078125,563.6575317382812,560.832763671875,559.2000122070312,558.1682739257812,558.3865966796875,557.5038452148438,557.7103881835938,557.7021484375,558.5333862304688,558.5443725585938,560.3397827148438,565.9179077148438,567.0839233398438,569.0711669921875,571.3685913085938,573.7981567382812,576.2430419921875,579.2974243164062,585.94482421875,602.9730834960938,693.05225,692.873,694.364,692.6153999999999,692.7678000000001,692.7764,692.4617,692.28064,691.8746999999998,691.4315,690.8344999999999,691.1205,691.20325,690.798,690.624,690.6281,691.0328400000001,690.276,690.4740000000002,690.39075,691.0078999999998,690.3335,690.482,690.76996,689.9595999999999,690.8867
750.71497,749.3591000000001,747.637,746.827,746.0,744.7580600000001,742.7038600000001,741.9345,740.7171600000001,740.5397,738.7343,737.59607,735.5354,735.1938,734.3065,733.665,732.4955,731.2243,730.2717,730.0205700000001,728.74976,727.65875,726.5974,725.35376,724.3928,610.5587768554688,610.5909423828125,608.0017700195312,606.32275390625,606.0848999023438,606.806640625,604.2835693359375,602.4564208984375,599.713134765625,600.0884399414062,595.2587280273438,589.9400024414062,585.9910278320312,582.5239868164062,579.004150390625,575.93701171875,574.0504760742188,572.0226440429688,570.2598876953125,568.5341186523438,567.748291015625,566.5769653320312,565.114501953125,564.4339599609375,563.845703125,563.6547241210938,563.8755493164062,563.5928344726562,563.313232421875,562.0540771484375,559.7080078125,557.8739624023438,557.0789794921875,556.5855102539062,557.2866821289062,558.1256713867188,558.9458618164062,560.413330078125,559.5004272460938,561.04638671875,566.3739013671875,567.17236328125,568.7342529296875,571.7371215820312,574.9129028320312,576.7784423828125,583.8723754882812,590.917724609375,693.2938,692.867,692.27435,692.7488,692.49335,692.67426,691.99274,692.276,691.853,691.2631999999999,691.0249999999999,690.62286,691.2103,690.89154,690.748,690.4909,690.02966,690.3084,690.1639,690.57275,690.4787,690.2674,689.8876,690.32477,690.2356,690.1482999999998,690.0829999999999
749.5063,748.34406,747.2195,746.9045,744.9505999999999,743.30835,742.33167,741.1789999999999,739.8768,738.65173,738.42737,737.21515,736.2877000000001,735.52686,734.20593,733.1862,732.3251,731.06476,729.65283,728.551,728.17114,726.8053,726.2077,724.5806,723.5574299999998,611.4739379882812,609.435302734375,607.0083618164062,605.6510620117188,605.5735473632812,605.4744262695312,604.973388671875,602.0697021484375,600.0794677734375,598.6412963867188,594.6763305664062,590.943603515625,586.6998291015625,582.9304809570312,579.5689697265625,575.8211059570312,574.3822021484375,571.401123046875,570.1123046875,568.3770141601562,567.5492553710938,565.903076171875,565.0905151367188,564.4945678710938,563.3125,563.10595703125,562.8883056640625,562.87353515625,562.1276245117188,561.3235473632812,558.99658203125,557.6990966796875,556.2664184570312,555.8803100585938,556.560302734375,557.4179077148438,558.9801635742188,560.3114624023438,560.2344360351562,565.962158203125,567.0281982421875,567.4697875976562,569.4033813476562,572.447265625,575.7724609375,580.2310180664062,587.8168334960938,602.021240234375,693.43616,692.63055,692.6829,692.2648000000002,692.0866,691.7229599999998,691.4556,691.1513,691.589,690.50244,690.2347399999999,690.34155,690.4922999999999,690.42865,690.28687,690.1071,689.8668,689.4773599999999,689.99786,690.272,689.55414,690.2518,689.68304,689.8019,689.9367,689.80664,689.93964
749.47705,747.6188,746.62274,745.9945700000001,745.09326,743.9459,742.05066,741.3523599999999,740.09296,739.18835,737.9787,736.7834500000001,735.6475,734.5327,733.50995,732.1697,731.75775,731.5018299999999,729.64417,727.92804,727.1463,727.34845,725.6711,724.6346,723.141,611.218505859375,609.1716918945312,606.5037231445312,605.5919189453125,604.8343505859375,604.1614379882812,603.1414184570312,601.175048828125,599.4658203125,598.5128173828125,593.6138305664062,592.7970581054688,587.204833984375,583.3402099609375,579.9880981445312,576.9360961914062,574.4893188476562,572.021240234375,570.1939697265625,568.7141723632812,567.3676147460938,565.7770385742188,564.876708984375,564.07373046875,563.5408935546875,562.6690673828125,562.6705932617188,562.224853515625,561.574462890625,560.9507446289062,559.1967163085938,558.5624389648438,557.7328491210938,557.5738525390625,557.1177978515625,557.6852416992188,558.9117431640625,561.1587524414062,565.1644287109375,566.38037109375,566.8931274414062,567.8248901367188,569.9357299804688,573.1488037109375,576.0054931640625,583.0498657226562,593.0947265625,603.5003662109375,692.9438,691.5747,691.8426,692.0273,691.77637,691.4083,690.6403,691.53314,690.9443,690.45233,690.5123000000001,690.4672,690.37537,690.06793,689.8883,689.82764,689.5745999999999,690.1467,689.1432499999999,689.1252,689.5226,689.4703,689.671,689.5124,689.38226,688.6462,689.4563600000001
748.6306,747.794,746.36206,745.48486,744.3611,743.1078,741.7692999999999,740.3368,739.75946,737.8495499999999,737.35034,736.08875,735.3900999999998,734.03314,733.2091,731.71674,731.10175,730.4928,728.7688,727.8217,727.2011,726.11285,726.1786,723.9871,723.0608,611.582763671875,608.7159423828125,606.8217163085938,605.9658203125,603.5875244140625,602.5875244140625,601.4132690429688,600.0865478515625,598.7823486328125,597.4940795898438,593.409912109375,591.1716918945312,588.4445190429688,583.9735107421875,580.8788452148438,577.3719482421875,574.7122192382812,571.9321899414062,570.666015625,568.3670654296875,567.5865478515625,565.6488647460938,565.1177368164062,563.6920166015625,563.065673828125,562.03466796875,561.8597412109375,561.3074951171875,561.0938720703125,560.259033203125,559.9013061523438,558.959228515625,559.546142578125,559.4046020507812,560.600830078125,560.6677856445312,560.4867553710938,561.63623046875,564.9063720703125,566.9988403320312,567.3904418945312,568.5814208984375,570.8930053710938,574.4827880859375,580.3853759765625,587.4810791015625,601.6358032226562,692.6009999999999,692.39886,691.5037,691.7485,691.43195,691.66675,691.22876,691.124,690.6019000000001,690.8601999999998,690.69684,690.4131,689.663,689.9788,690.0532,689.39484,689.48267,689.1506000000002,688.7937999999999,689.1042,689.50146,689.4165599999999,689.8116,689.2224999999999,689.25165,689.34546,689.5681,689.0169000000001
748.50995,747.34924,746.0689,745.37366,744.4596,742.5002,740.6143,739.65436,739.783,738.2524,737.6406,735.6207,734.90283,733.7302999999999,733.4208,732.3641399999999,730.8632,728.9009,728.6647,728.1984,726.8926,725.40356,725.33813,723.6,722.6799,612.621826171875,610.5845336914062,608.077880859375,605.1773071289062,602.1678466796875,600.8426513671875,600.1408081054688,598.9926147460938,597.7802124023438,597.6034545898438,593.700439453125,588.59326171875,589.2907104492188,584.7775268554688,581.6229248046875,578.1371459960938,575.6373901367188,572.3848266601562,570.9313354492188,568.4627075195312,567.5924072265625,566.136474609375,564.8440551757812,563.6019897460938,562.4672241210938,561.7326049804688,560.9494018554688,559.8551635742188,559.68896484375,559.267578125,558.9835815429688,558.5078735351562,558.9096069335938,559.3556518554688,560.4675903320312,560.9979858398438,560.6876831054688,560.9541015625,565.4319458007812,566.931884765625,567.7013549804688,569.1539916992188,571.76611328125,576.2322387695312,584.6115112304688,593.8821411132812,603.17578125,692.2844,692.3294699999999,691.51306,690.7023300000001,691.7463,690.9571,690.4603,690.75214,690.3546,690.5286,690.6381,689.9625000000001,689.0048,689.46185,689.9667,689.2091,688.781,688.64233,688.7224000000001,688.47723,689.1517,688.4032,688.53186,688.65656,688.6830399999999,688.3277,688.9285,688.3841
747.91455,747.26984,746.51416,744.1040599999999,743.5188,742.11664,740.8355,738.2555,738.2475,737.6818000000001,736.5695,735.2437,734.2009,733.4176,732.77856,731.49615,730.2735,729.2837,728.53546,726.7206999999999,726.1694,725.0922,724.5795,723.8343,722.5496,612.3106079101562,609.6959838867188,606.3255615234375,602.5149536132812,601.6552734375,600.396484375,599.5858154296875,597.8975830078125,595.3858642578125,599.4118041992188,595.5576171875,592.4523315429688,592.4384765625,586.3427734375,582.18994140625,579.5255126953125,576.2625122070312,573.3140258789062,570.7246704101562,569.1226196289062,567.5990600585938,566.2935791015625,564.7431640625,563.4080810546875,562.2333374023438,561.1942138671875,560.1115112304688,559.0391235351562,557.7236328125,557.770751953125,557.278564453125,557.225341796875,557.2365112304688,557.8723754882812,559.1105346679688,560.1377563476562,561.363037109375,562.5624389648438,565.085693359375,567.0276489257812,568.0866088867188,569.7549438476562,573.033935546875,580.0259399414062,591.2985229492188,598.7938232421875,691.82855,691.938,691.4590499999999,691.1469,691.26306,691.00195,690.8230000000001,690.44934,689.86743,690.3773,690.31134,690.3963999999999,689.5995,688.9436,688.2808,688.91785,689.2602999999999,688.52075,688.8556,688.15466,688.7735,688.7102,689.1011000000001,688.0881999999999,687.7645,688.1997,688.3869,688.2554300000002,687.38
747.967,746.0699,746.11017,744.379,744.0858000000001,740.9281999999998,740.1428,739.76764,738.0404699999999,736.60144,735.8127,735.04034,733.82495,732.4166,731.9137,731.2657,729.3348000000001,729.2294300000001,728.06146,726.8737,726.0497,725.56055,723.72595,722.90186,722.06476,611.1744995117188,608.2476806640625,603.9769287109375,601.4429931640625,601.216796875,600.760498046875,600.0450439453125,598.3377075195312,594.8257446289062,599.2470703125,595.8923950195312,593.1776733398438,591.1056518554688,587.2642822265625,583.9832153320312,581.2493896484375,577.1351318359375,574.4493408203125,571.3917236328125,569.5935668945312,568.1834106445312,566.3770751953125,564.3960571289062,563.0585327148438,561.6124877929688,560.2698364257812,559.0828857421875,557.9679565429688,556.5630493164062,555.7337646484375,555.66748046875,555.2800903320312,555.4172973632812,555.6741333007812,557.7522583007812,559.65966796875,560.8008422851562,563.2179565429688,564.9132690429688,566.869140625,568.5841064453125,570.7100219726562,575.044921875,584.13916015625,596.2493286132812,603.1124877929688,692.35455,690.98413,691.7470000000001,691.2946999999999,690.90643,690.4624,689.6781,690.89056,690.08624,690.1874399999999,689.9670000000001,689.4777999999999,688.3492,689.01917,688.8563999999999,688.1338,688.9903000000002,688.1225,688.6746,687.8963,687.325,687.9283,687.505,688.6816999999999,687.1931,688.0162,687.7993000000001,687.4336,687.9942600000002
747.06836,745.8176000000001,744.7819,744.3536,743.01154,741.6138,739.17065,739.2618,737.55566,736.77496,736.19135,734.30835,733.531,732.6014,731.76324,730.5823,729.5622000000001,728.69366,728.37177,726.80634,725.7674,724.29126,724.1008,722.22845,721.46857,611.6281127929688,607.5768432617188,604.7628784179688,602.4429931640625,602.4105224609375,601.6917724609375,601.934326171875,601.0078125,601.1998291015625,597.2168579101562,595.5192260742188,593.195068359375,591.2518920898438,588.335205078125,585.41455078125,581.457275390625,578.2735595703125,575.0928955078125,572.7232055664062,570.5368041992188,568.7265014648438,566.5473022460938,564.4781494140625,562.6688842773438,561.2463989257812,559.7936401367188,558.29541015625,556.457763671875,555.59619140625,554.6377563476562,554.612548828125,554.1272583007812,554.0089111328125,554.6109619140625,556.8491821289062,558.2311401367188,559.847412109375,563.0731811523438,565.0165405273438,567.0343627929688,569.4603271484375,571.6409301757812,580.8860473632812,588.697509765625,603.1397705078125,691.78156,691.825,691.1455,690.9659,690.58545,690.5118,690.5952,690.58264,689.4799,689.7003,689.5693,689.7341,688.4335999999998,688.19904,687.457,687.99536,687.85596,688.55597,688.4095,687.92816,687.5323000000001,687.0869,687.62195,688.0019500000001,686.77814,687.15454,687.01843,687.2184400000001,687.44183,686.9462999999998
747.3856,745.0245,744.8086,743.9394500000001,742.0707,740.9344999999998,739.23096,737.88617,736.89526,736.05524,735.5869,734.15125,733.9587,732.15546,731.9216,730.66736,730.2958,728.50183,726.9100000000001,725.94073,724.74805,724.19214,723.40173,722.05585,720.91595,720.39166,610.0780639648438,607.572265625,605.0819091796875,604.150634765625,603.2158203125,603.4718627929688,603.4773559570312,600.66455078125,596.2833862304688,594.9234619140625,592.9552612304688,591.261474609375,589.2927856445312,585.846435546875,582.6571655273438,579.2752685546875,575.9572143554688,573.93505859375,571.3675537109375,569.3138427734375,567.1664428710938,564.95166015625,562.7767333984375,561.2925415039062,559.3177490234375,557.7242431640625,556.0906982421875,555.30419921875,554.5101928710938,554.18408203125,554.064208984375,554.0419921875,554.7125854492188,555.8391723632812,557.4248046875,558.8110961914062,563.0616455078125,565.5869140625,568.9605102539062,570.786865234375,574.0480346679688,586.8129272460938,594.841552734375,692.3985,691.40515,690.9925,690.5643,690.9362999999998,690.57294,690.5448,690.53973,690.39526,688.9358,688.505,689.7447999999999,689.0693999999999,689.1711,687.61273,688.1893,687.5772,688.0271,687.9577,687.2044,686.82855,687.3972000000001,687.7486,686.67053,687.3313,686.90375,686.7574,686.7485999999999,687.21405,686.2421,686.9411
747.67535,745.1521,744.1686400000001,744.0034,741.62866,740.6584499999999,739.57294,737.9877999999999,736.9629,736.2511,735.093,733.97675,733.4171000000001,732.1359,731.0711000000001,730.2644699999998,728.75903,728.1354,727.3117,726.4842999999998,724.88556,724.0277000000001,723.6115,721.3493,721.6005,720.7522,610.798095703125,609.1128540039062,608.250732421875,607.3829956054688,606.1851196289062,605.8325805664062,604.3479614257812,599.4688720703125,595.68603515625,594.0364990234375,592.7672729492188,592.12744140625,588.7432250976562,586.3203125,582.8360595703125,579.0621337890625,576.6871337890625,574.8204345703125,572.4523315429688,570.3991088867188,568.0517578125,566.0379028320312,562.87451171875,561.7166748046875,560.076416015625,558.2767944335938,556.4287109375,555.3674926757812,554.4177856445312,554.0653686523438,554.3280639648438,554.5148315429688,555.1337890625,555.9349365234375,557.588623046875,558.420166015625,563.445556640625,566.8465576171875,571.282470703125,573.1646118164062,580.4392700195312,592.608642578125,604.0262451171875,691.4865,691.1892,690.78345,690.3917,689.978,690.9519,690.3693,690.0428,689.801,689.2174,687.65924,689.3728,688.6087,688.1605,687.7837999999999,687.70215,686.89075,687.4001499999999,687.13666,687.525,686.7314,686.2864,686.8056,686.19543,686.9772,686.5451,686.0851,686.54144,685.7799,686.45483,686.4859
746.40485,745.17175,743.70593,742.6158399999999,741.0433,740.24774,739.1583,737.9224,736.4198,735.45966,734.8612,733.5016,731.8834000000002,731.6703,731.5526,729.1588,728.5805700000001,728.2468,726.1877400000001,726.1942999999999,724.1769,723.4692,722.62946,722.04706,721.0116600000001,719.8019999999999,719.20953,610.0006103515625,609.2781982421875,609.3695678710938,608.1983642578125,605.9476318359375,602.9044189453125,598.1275024414062,594.7066650390625,593.417724609375,592.1939086914062,591.2952880859375,587.8646240234375,585.588623046875,582.3676147460938,579.2464599609375,577.4027099609375,575.32080078125,573.4625854492188,571.8001098632812,568.8526000976562,566.8641357421875,564.00634765625,562.6337280273438,560.50439453125,558.9929809570312,557.2752685546875,555.4814453125,554.86181640625,554.3358764648438,554.8683471679688,555.1388549804688,555.640380859375,556.8521118164062,558.3133544921875,559.2700805664062,565.0580444335938,568.8447875976562,575.1473388671875,584.2060546875,588.50732421875,602.1522827148438,603.0032958984375,691.3722,690.89496,690.5843,690.2648999999999,690.1317,689.7672,689.35986,690.2999,689.1303,688.7158999999999,688.1197499999998,688.42505,687.95483,687.7126,687.9076,686.834,687.7805,687.0808999999999,687.0281,686.7569000000001,685.7879,685.61865,686.8839,686.4192,686.59357,686.1521600000001,686.6766,686.8478400000001,686.4779999999998,686.07007,686.04736
746.60034,744.6259,743.1675,742.7048,742.0884,739.44684,738.0476999999998,737.6899000000001,736.2512000000002,734.84534,734.58124,733.90344,732.864,730.4975,729.40076,728.8723,728.1318999999999,727.2844,726.90155,724.42096,724.4653,722.84155,722.3076000000001,721.728,720.532,719.0261,718.48145,717.498,608.8324584960938,610.594482421875,608.4254150390625,607.038818359375,598.8560180664062,596.7994995117188,593.9759521484375,592.4089965820312,591.4995727539062,590.095703125,587.4302978515625,584.3391723632812,581.4732666015625,579.0379638671875,577.4635009765625,575.8601684570312,574.0186767578125,572.3289794921875,569.9248657226562,567.6969604492188,565.5797729492188,563.4531860351562,561.6415405273438,560.0383911132812,558.8001098632812,557.5776977539062,556.5136108398438,555.6397094726562,555.8804321289062,556.5932006835938,556.4451904296875,557.6679077148438,558.8211059570312,560.9522094726562,569.0127563476562,572.0728759765625,578.1119384765625,593.2786254882812,604.010498046875,602.9468994140625,602.2722778320312,691.1061,690.4566,690.41766,689.8814,689.5167000000001,688.89594,688.8034700000001,690.043,688.6917,688.9607,688.06134,688.4898,687.9783,687.8417,687.2554,686.36115,686.0992999999999,685.95215,686.425,685.98505,685.2764,686.11237,685.81024,685.7032000000002,686.0211000000002,686.4137600000001,685.82874,685.6728499999999,685.885,686.0971,685.1594
745.9154,744.79285,743.0805699999999,742.8731,741.9335,739.42145,738.4959000000001,737.15564,736.7445,735.4114,734.4946,733.5458,731.91254,731.1449,729.9909,728.9991499999999,728.48047,726.9142999999999,725.5913,723.8611000000001,724.1585,723.4968000000001,721.7185,720.8013,719.5910000000001,718.7784999999999,718.3101,717.07385,608.3172607421875,609.6364135742188,609.1770629882812,605.8190307617188,599.1288452148438,596.2240600585938,593.1611328125,591.9509887695312,590.92138671875,589.1695556640625,586.4155883789062,582.66064453125,580.1513061523438,578.3939208984375,576.680419921875,576.2033081054688,574.3181762695312,572.9213256835938,570.73583984375,569.3325805664062,567.4218139648438,564.5925903320312,562.9658203125,562.6398315429688,561.0137329101562,559.9920654296875,559.5590209960938,558.7810668945312,558.502197265625,558.6203002929688,558.7214965820312,560.701904296875,562.1207885742188,566.8966674804688,573.1153564453125,577.63720703125,588.91650390625,601.8392333984375,602.2609252929688,602.4228515625,691.17444,690.8726,690.3685,690.5042000000001,690.49854,689.4858999999999,689.5536,688.5654999999999,688.76215,688.6179,687.82513,688.1877399999998,688.6935,687.5942,686.58655,686.64905,686.133,686.1490000000001,686.8017,685.87213,686.4002,686.0893999999998,684.8769,685.7592,685.7484,685.60114,685.9193,685.8781999999999,685.33997,685.33203,685.14777,685.14417
