78.67498,78.39840000000001,78.35368700000001,78.22722999999999,78.07616,77.99168,77.855194,77.71369999999999,77.578644,77.46221299999999,77.26728,77.23038299999999,77.08929,76.983716,76.95913,76.85054,76.66529,76.61487,76.4865,76.35574,76.313165,76.22815,76.08966699999999,76.02219,75.911725,75.8337,75.742053,75.611017,75.464996,75.44781,75.394745,75.26575299999999,75.275446,75.064685,75.01689999999999,75.03215,74.958545,74.77642,74.835864,74.651105,74.60704,74.59430499999999,74.473645,74.471014,74.401025,74.28089,74.25988,74.21082,74.05198,74.03465,74.00967399999999,73.9441,73.7991,73.84974,73.70583,73.654755,73.625977,73.529346,73.52042,73.526953,73.35668,73.38126,73.200964,73.24679,73.15353400000001,73.129535,73.06219,73.06681999999999,72.998944,72.96335,72.96458,72.9164,72.90572,72.89869,72.79985400000001,72.83777,72.717804,72.71459,72.80557,72.788403,72.67067,72.75876,72.68465,72.65012,72.57512,72.58618,72.55915999999999,72.660846,72.60919,72.48152,72.652576,72.60879,72.47694,72.57827,72.54071,72.500836,72.51445,72.54195,72.465314,72.46212
78.42365,78.37107499999999,78.160254,78.089966,77.95701,77.903937,77.63901,77.572345,77.39086,77.335693,77.30435,77.1627,77.026276,76.871576,76.8345,76.69050999999999,76.56282999999999,76.543726,76.46711400000001,76.33831,76.20626999999999,76.09129,76.00793,75.88967,75.85616,75.7753,75.57317,75.59675,75.42726,75.38289999999999,75.31291999999999,75.09877,75.057916,75.04127,74.957025,74.925635,74.82750999999999,74.757434,74.65401,74.546674,74.511176,74.492773,74.41441,74.26295999999999,74.25032300000001,74.1814,74.145087,73.989435,74.02636,73.9282,73.87913,73.83858599999999,73.72236000000001,73.701935,73.68188,73.47038,73.507544,73.512897,73.45059,73.346295,73.246606,73.247406,73.151526,73.13817,73.09279000000001,73.04727,72.98803000000001,72.9628,72.93271999999999,72.91373,72.87116999999999,72.86678500000001,72.826044,72.75349,72.74566999999999,72.718823,72.66352,72.7461,72.54006000000001,72.629956,72.651465,72.60722,72.541296,72.5423,72.42681,72.51174999999999,72.45792,72.51291,72.423315,72.45839,72.37875,72.41319999999999,72.42935,72.51343399999999,72.435333,72.516144,72.49731,72.505664,72.402484,72.44883999999999
78.45703,78.223474,78.131555,77.96686,77.941534,77.77593,77.637146,77.40058,77.33989,77.213995,77.12372,77.03137000000001,76.95939,76.73747,76.672144,76.60878,76.49079,76.429944,76.223224,76.179376,76.05422,76.032025,75.82851600000001,75.870465,75.756824,75.54894,75.464453,75.42008,75.31296999999999,75.21627,75.15965,75.054956,75.02483,74.94109499999999,74.854535,74.750806,74.7643,74.60114,74.491486,74.45925,74.37351,74.36592399999999,74.28231,74.150116,74.18698,74.089514,73.990137,73.94217,73.859033,73.777997,73.762384,73.69036,73.66629,73.57052999999999,73.58061000000001,73.476544,73.45977,73.325714,73.33572000000001,73.25829,73.12736,73.113074,73.08831,73.01796,72.97161,72.93265,72.939307,72.865405,72.88902,72.77745999999999,72.80981,72.71597,72.738074,72.72892,72.57594,72.59455,72.56942000000001,72.541895,72.539905,72.49568000000001,72.505383,72.527423,72.42033699999999,72.461926,72.35379,72.35292,72.334576,72.335455,72.41861,72.36037999999999,72.32932,72.321484,72.282336,72.360266,72.312366,72.31298000000001,72.29001500000001,72.32317,72.356165,72.350964
78.230707,78.063824,77.98794000000001,77.73573999999999,77.81253699999999,77.54903,77.50207,77.32924,77.25091,77.10947999999999,77.01989,76.953986,76.75406000000001,76.682654,76.531384,76.4556,76.37046000000001,76.38074,76.15856,76.110986,75.97226,75.84769,75.84343,75.75076,75.57984,75.54004,75.38728,75.37621,75.21871,75.09844000000001,75.02794,74.96871,74.92530500000001,74.838684,74.75001999999999,74.73080999999999,74.575037,74.43793,74.48246,74.39138,74.35387,74.27181399999999,74.161005,74.024054,74.0235,73.94635,73.97049,73.852734,73.84503,73.68840300000001,73.566394,73.54194,73.51471000000001,73.483496,73.445496,73.31752300000001,73.353546,73.33664,73.127606,73.21797000000001,73.07781,73.029504,72.98539,72.942725,72.82102,72.852795,72.887006,72.74690000000001,72.768555,72.615656,72.69543,72.68754,72.617413,72.61774,72.46871,72.48125,72.39997,72.470465,72.42488399999999,72.41747000000001,72.43958,72.40433,72.35373,72.33578,72.32624,72.24035599999999,72.30289,72.27944,72.24596,72.27708,72.26912,72.13067,72.20354599999999,72.23035,72.265485,72.2607,72.22614,72.23754,72.197485,72.25769
78.23572,78.04189,77.89072,77.72745,77.69964999999999,77.443085,77.402466,77.34434999999999,77.111,77.03306,76.98994,76.87026,76.69711,76.59740000000001,76.470197,76.359595,76.30399,76.23963,76.068066,75.91216399999999,75.84207,75.76535,75.701025,75.51677,75.52956,75.330994,75.296686,75.31666,75.14945,75.07277,74.96471,74.87015,74.786176,74.69932,74.65159,74.65785,74.449066,74.426086,74.37358,74.25958,74.17938000000001,74.13462,74.012744,74.062726,73.967804,73.90929,73.78316,73.702185,73.66458,73.51192999999999,73.46522,73.5146,73.50140999999999,73.42558,73.39317600000001,73.25525,73.24249,73.143585,73.1743,73.10898999999999,72.98066,72.952783,72.87075,72.844324,72.76064,72.72049,72.72513000000001,72.612225,72.580695,72.667926,72.599023,72.4995,72.543976,72.37903,72.47956,72.42879,72.42727,72.44020400000001,72.359735,72.192456,72.26377,72.314935,72.22703,72.25473,72.17486,72.167413,72.169354,72.15289299999999,72.263086,72.11305,72.15493000000001,72.10173999999999,72.1423,72.12051,72.15095,72.069226,72.14483,72.080176,72.11764,72.07428999999999
78.140485,77.92105000000001,77.71949,77.67488,77.56135,77.40032,77.225366,77.129724,77.035754,76.89872,76.85606,76.70176000000001,76.55821499999999,76.36326,76.371375,76.3255,76.16017500000001,76.10244,75.89704,75.75752,75.65657300000001,75.61941,75.64256,75.52803300000001,75.41036,75.30841000000001,75.14217,75.05821,75.06648,75.00822,74.79986,74.81089,74.70555,74.63842,74.5953,74.41631,74.402606,74.30584999999999,74.286945,74.18072,74.081256,74.0885,73.94798,73.911707,73.775964,73.781525,73.69942999999999,73.65196499999999,73.584326,73.441705,73.40611,73.43543,73.37395599999999,73.291095,73.19048000000001,73.23627300000001,73.133575,73.01683,72.98316,72.94923,72.9117,72.85072,72.730817,72.62683,72.65906,72.578827,72.57977,72.490814,72.53517000000001,72.479926,72.45969,72.325507,72.40682000000001,72.29619,72.361383,72.235205,72.21257,72.232635,72.251904,72.22110599999999,72.143805,72.20115,72.07448000000001,72.15507,72.02524,72.09031999999999,72.10141,72.12464,72.09364000000001,72.03655,72.01752,72.01421,71.9445,71.94597,71.96022,72.0727,71.99491,71.983374,72.06142,72.07795999999999
78.00955,77.724457,77.68369,77.63563,77.46504999999999,77.39124000000001,77.135486,77.07066,76.94796,76.89541,76.71753,76.482886,76.469556,76.349084,76.27763,76.192395,76.095856,76.05596,75.89095999999999,75.84333000000001,75.72122,75.47605,75.49111,75.43381000000001,75.31264999999999,75.219354,75.08747,75.0405,74.96306,74.82256,74.79584,74.6271,74.62726,74.52354,74.57208,74.36528,74.252606,74.22248499999999,74.19371,74.04930399999999,73.919055,73.98356,73.845325,73.75012000000001,73.72522599999999,73.64975,73.559845,73.52946,73.37433,73.40203,73.3058,73.24686,73.32994,73.16675000000001,73.10304599999999,73.04818,73.02604,72.98848000000001,72.93341699999999,72.84692,72.83561999999999,72.65874,72.63744,72.65682000000001,72.57899,72.481915,72.47831,72.43054,72.40340599999999,72.34528,72.427905,72.280817,72.30328399999999,72.28595,72.16588,72.22345,72.21946,72.14419000000001,72.120605,72.1853,72.09432000000001,72.129614,72.01985499999999,71.98229,71.94864,71.971686,71.96966,71.93701999999999,71.95829499999999,71.95385999999999,71.969055,71.94773,71.80678,71.94315,71.95397299999999,71.88984,71.926984,71.91803999999999,71.91471,71.945435
77.84783300000001,77.670416,77.53213,77.464,77.363464,77.19144,77.05208999999999,76.99175,76.83615999999999,76.76851,76.687286,76.498505,76.39289,76.2243,76.14284699999999,76.11695999999999,75.97626,75.928876,75.72555,75.63034999999999,75.59185,75.44505000000001,75.416266,75.216,75.277405,75.10377,74.99819,74.97796,74.81555,74.72166,74.631714,74.56701000000001,74.53173000000001,74.35888700000001,74.39678,74.299036,74.22204,74.091797,73.96341,74.004407,73.945404,73.822284,73.82177,73.68241,73.64549600000001,73.63277000000001,73.474615,73.452496,73.397565,73.28294700000001,73.285876,73.25696400000001,73.18842,73.148956,73.065546,72.99063,72.93606,72.911945,72.87320600000001,72.76055,72.714935,72.62298,72.597974,72.57538,72.40196999999999,72.519995,72.334564,72.41699,72.28954,72.30309,72.251917,72.21052,72.14631,72.145715,72.14559,72.12577999999999,72.15671,72.07383999999999,72.11918,71.99793,72.018866,71.930853,72.0097,71.95802,71.8946,71.92524,71.91325,71.83293499999999,71.88735,71.88237000000001,71.86636999999999,71.801044,71.89546,71.81693,71.86947599999999,71.8183,71.85883,71.82135600000001,71.83787,71.75303
77.70453499999999,77.654803,77.505505,77.35254499999999,77.17873499999999,77.12252,76.96258,76.92895999999999,76.75624,76.72138,76.62645,76.42376,76.322253,76.128394,76.053296,75.98814999999999,75.91211,75.771155,75.69933999999999,75.608673,75.50577,75.36553,75.362494,75.30508999999999,75.11166,75.020294,74.931805,74.87868999999999,74.715094,74.690894,74.58991999999999,74.401,74.41843,74.37104500000001,74.316724,74.2102,74.152045,74.03293,74.01011,73.955475,73.83079000000001,73.673834,73.67916,73.56447,73.51352,73.46383,73.39614,73.3879,73.32486,73.167786,73.17308299999999,73.170135,73.096906,73.010986,72.96790999999999,72.899756,72.817834,72.849493,72.787744,72.68341000000001,72.548193,72.49008,72.53801,72.38405,72.40277,72.29845,72.28643,72.295685,72.21252,72.20267,72.13664,72.15469399999999,72.062915,72.09085,72.04952,71.93915,71.94774,71.98584600000001,71.983026,71.87935999999999,71.96567999999999,71.91276,71.883484,71.86677,71.80156,71.81155,71.78952000000001,71.795264,71.86328,71.79012,71.72727,71.683264,71.79389599999999,71.73004,71.724133,71.727,71.792126,71.789526,71.69613000000001,71.69963
77.604675,77.479755,77.38627,77.240753,77.125507,77.04652999999999,76.92569999999999,76.83727999999999,76.62021,76.579755,76.42704,76.25214,76.24586000000001,76.02471299999999,76.04483,75.92285000000001,75.763275,75.67582,75.59891999999999,75.44838,75.320276,75.26973000000001,75.20969,75.10561,75.02548,74.95497,74.911554,74.754755,74.7279,74.56048,74.52927,74.39546,74.368787,74.32757000000001,74.20096,74.069696,73.98542,73.880634,73.87937,73.82478599999999,73.76101,73.60998,73.47992,73.50612,73.43799,73.31907,73.288525,73.17573999999999,73.199457,73.11807,72.97576000000001,73.043207,72.99875,72.94543,72.85019,72.78981,72.85512,72.71329,72.710077,72.60123,72.56123,72.356903,72.38,72.303973,72.31501,72.304266,72.18961,72.10302,72.133545,72.031396,72.042596,72.04021,72.004144,72.033435,71.91978,71.94194,71.77705,71.83518000000001,71.782056,71.78312,71.81946400000001,71.84985,71.76203000000001,71.80875,71.75605,71.630457,71.598645,71.69079,71.71263400000001,71.56516,71.645764,71.65821,71.605994,71.619574,71.681805,71.649396,71.56778,71.622974,71.63431399999999,71.603937
77.57397999999999,77.42212500000001,77.273413,77.18758,77.07926599999999,76.963446,76.82923,76.70417499999999,76.60431,76.45096,76.44509000000001,76.247614,76.06843,75.89385,75.894165,75.73183,75.74407,75.565784,75.44554000000001,75.30683,75.24987,75.210986,75.11679000000001,75.042346,74.965094,74.860394,74.74483599999999,74.632837,74.52576,74.49562399999999,74.439215,74.31756,74.17832,74.17137,74.06703,74.037604,73.944135,73.859906,73.75408999999999,73.61909,73.699384,73.60715300000001,73.396387,73.333575,73.35691,73.23519999999999,73.14991,73.14338000000001,73.004297,73.02969,73.01862,72.99823599999999,72.95286999999999,72.827203,72.716614,72.76794,72.64797,72.65729400000001,72.59064,72.54284,72.47728,72.35594499999999,72.22282,72.26175500000001,72.20459600000001,72.20885,72.12859499999999,72.06706,72.03762,71.913837,72.00122999999999,71.99871,71.85326,71.84992,71.87663599999999,71.82982,71.75102000000001,71.75094,71.771704,71.717523,71.67002,71.70709000000001,71.653625,71.70014599999999,71.600104,71.56520400000001,71.537555,71.62859999999999,71.60494,71.553973,71.55960999999999,71.570844,71.533997,71.58258,71.498706,71.546844,71.494653,71.487683,71.54204,71.48174
77.45027,77.3006,77.15067,77.115076,76.9962,76.890045,76.78067999999999,76.630475,76.45402,76.42321,76.29418,76.06023,76.021155,75.903314,75.83679,75.65615,75.59365,75.423193,75.35441,75.242566,75.14788999999999,75.102875,75.02532,74.906586,74.89137,74.71065999999999,74.63701999999999,74.54339999999999,74.49011,74.40911,74.31518,74.214874,74.18515,74.10074499999999,73.97449,73.86284,73.79395,73.75929599999999,73.705304,73.63804,73.57633,73.38606,73.345294,73.284894,73.27337,73.217786,73.11157,73.074927,73.0407,72.95307,72.90903,72.88435,72.82939999999999,72.74061,72.77124,72.67672999999999,72.55877000000001,72.514355,72.496124,72.350726,72.392053,72.27838,72.15497400000001,72.09169,72.07817,72.12876,71.98776000000001,72.018317,71.92105000000001,71.86917,71.89755,71.81882,71.70605,71.82934,71.77888,71.688257,71.73441,71.73123000000001,71.67266,71.62639,71.558203,71.596545,71.52028,71.52333999999999,71.57156,71.456616,71.471075,71.42245,71.42015,71.395245,71.47823,71.366736,71.431055,71.41651,71.48316,71.44969999999999,71.469574,71.50847999999999,71.410156,71.405524
77.4226,77.1815,77.11581,77.045905,76.96254,76.76594,76.624274,76.53517000000001,76.401135,76.21623,76.18487,75.99325999999999,75.88108,75.74859000000001,75.707153,75.58279999999999,75.51971999999999,75.44556,75.32969,75.1602,75.12421,75.03728,75.07179,74.737274,74.73366,74.62995,74.58345,74.45477,74.33642,74.31613999999999,74.164264,74.15854,73.98193,73.97102,73.85474,73.84226,73.71277,73.58505,73.53200000000001,73.54124,73.43305699999999,73.36767599999999,73.25192,73.18758,73.14471,73.16981,73.03758,73.01506,72.96786,72.92967999999999,72.902704,72.85448,72.771124,72.63943,72.62519,72.5493,72.46437,72.41217,72.39905,72.336957,72.265283,72.16337999999999,72.08515,72.13626000000001,72.04154,72.020557,71.92200299999999,71.86339000000001,71.77856,71.85976600000001,71.749994,71.791754,71.76698999999999,71.60645,71.59358,71.675854,71.62948,71.67752,71.48647,71.56477,71.507666,71.441565,71.46508,71.43061,71.45300999999999,71.39595299999999,71.47015,71.407983,71.33791,71.33091399999999,71.339,71.33812,71.39020000000001,71.34928599999999,71.33048,71.288135,71.35099,71.33115000000001,71.29017,71.279584
77.20076,77.134985,77.01232,76.97407,76.78215,76.696313,76.543915,76.40569500000001,76.3757,76.13223,76.06269,75.989655,75.86996,75.81146,75.569073,75.508704,75.33314,75.31667999999999,75.206604,75.101874,75.010333,74.96211,74.93343,74.78112999999999,74.67422,74.54391000000001,74.413525,74.439404,74.319183,74.2086,74.09094999999999,74.06287999999999,73.91357400000001,73.885535,73.912744,73.66875999999999,73.6494,73.444147,73.46898,73.417303,73.34224,73.24034,73.186505,73.12631,73.106573,73.03948,73.00632,72.897107,72.90497400000001,72.83047,72.74041,72.706647,72.668744,72.60972000000001,72.56061,72.446515,72.34461,72.39043000000001,72.20561000000001,72.246564,72.119934,72.066296,71.99172999999999,71.94506,71.91829,71.916125,71.86671,71.727045,71.75939,71.70714000000001,71.679144,71.64195600000001,71.65339,71.52202,71.52208,71.507367,71.515436,71.476917,71.47146599999999,71.34797999999999,71.45584,71.425006,71.415936,71.338837,71.331177,71.35621,71.345325,71.27959,71.264905,71.282635,71.32332,71.28424700000001,71.191956,71.254706,71.199664,71.28103999999999,71.189606,71.304596,71.236554,71.262274
77.19547,77.10621,76.942847,76.87501999999999,76.76676,76.58574,76.444727,76.37161,76.21227999999999,76.05953,75.93487999999999,75.90216000000001,75.82902,75.644086,75.55669,75.3974,75.321216,75.23481000000001,75.150757,75.06792,74.97931,74.83851,74.78005,74.724963,74.55284400000001,74.52156,74.37073000000001,74.36222000000001,74.268884,74.16423999999999,74.09389,73.971075,73.83644000000001,73.79348,73.708765,73.6762,73.5044,73.44371,73.37191,73.36411000000001,73.28766,73.183746,73.15599399999999,73.06381999999999,73.01225,72.950305,72.915076,72.83606999999999,72.86163,72.70261,72.65753,72.551074,72.56541999999999,72.545105,72.40471,72.364746,72.347034,72.31707,72.230554,72.10086,72.15009,72.04016,72.00444300000001,71.90812,71.86399,71.811694,71.748505,71.747766,71.69937999999999,71.578186,71.58573,71.6169,71.54795,71.51651000000001,71.44715599999999,71.45246,71.435,71.422064,71.429346,71.34259,71.33368,71.38289,71.30359999999999,71.384186,71.309894,71.27603,71.19043,71.19393,71.21588,71.21799,71.19654,71.247565,71.21494,71.229803,71.191846,71.163904,71.18649,71.20072,71.213916,71.23452999999999
77.11133,76.992694,76.831177,76.78067999999999,76.72868700000001,76.462787,76.424805,76.31231,76.149567,76.052783,75.883746,75.75554,75.76001,75.513824,75.454095,75.27693500000001,75.28354,75.13401,75.08367,75.023486,74.897406,74.753625,74.741547,74.52209500000001,74.50303,74.41245,74.32075999999999,74.2457,74.2161,74.06023,74.03323400000001,73.91445999999999,73.798755,73.75095999999999,73.680164,73.58793,73.38019399999999,73.402386,73.32655600000001,73.29679999999999,73.212976,73.13848,73.06405,73.03544000000001,72.99179699999999,72.85304599999999,72.84001500000001,72.75516,72.78900999999999,72.591815,72.53412,72.52763999999999,72.45351000000001,72.39231,72.39607,72.33899,72.235187,72.19654,72.113257,72.04527,71.992535,71.87293,71.76554,71.87925,71.7634,71.69215,71.711176,71.611884,71.536664,71.52698000000001,71.53744,71.50379000000001,71.500006,71.470715,71.423737,71.42769,71.37575000000001,71.37344,71.27947400000001,71.284155,71.332556,71.22197,71.216516,71.23832,71.19483,71.120404,71.161237,71.2351,71.15275,71.16018,71.10572499999999,71.06763,71.12453000000001,71.07361499999999,71.14022,71.039734,71.13909,71.13596,71.09457,71.082526
77.01201999999999,76.89932,76.80765,76.669727,76.49965999999999,76.459375,76.30217,76.18065,76.108704,76.014435,75.83041,75.62768,75.59293,75.451337,75.38315,75.263306,75.166077,75.05794,75.01938,74.89278,74.82424999999999,74.75577,74.547833,74.49844,74.44079,74.25489999999999,74.277545,74.17496,74.13176999999999,73.93199,73.81378,73.75191,73.69759,73.68638999999999,73.51415,73.47451,73.35978,73.35186,73.1506,73.17805,73.133325,73.03592,73.005615,72.90469399999999,72.82824000000001,72.79652999999999,72.74951,72.64713,72.54303,72.5664,72.50217,72.41020999999999,72.42703,72.34674,72.174567,72.270386,72.15052,72.13522,72.03452,72.025964,71.898865,71.846295,71.760016,71.70776,71.642377,71.65261000000001,71.56103,71.57396,71.40747999999999,71.416425,71.51444000000001,71.508154,71.424396,71.33173000000001,71.309436,71.305054,71.257666,71.265985,71.24606,71.166327,71.20676999999999,71.18282,71.187726,71.053876,71.11336,71.05883,71.06568999999999,71.08522,71.02354,71.072577,71.056177,70.99192000000001,71.02772,71.04026,70.999725,70.97603000000001,71.09635,70.99303599999999,71.029767,71.02723399999999
76.970483,76.814026,76.725006,76.63,76.45705000000001,76.389014,76.21835999999999,76.026556,75.93984400000001,75.851056,75.835803,75.64892599999999,75.519525,75.363574,75.359186,75.1932,75.0688,74.98375,74.921265,74.78613,74.64985,74.63421600000001,74.59564,74.45069600000001,74.38138000000001,74.27458,74.104944,74.050946,73.93794,73.866394,73.79502,73.73224,73.64109499999999,73.64234,73.44362,73.4143,73.25335,73.215656,73.142957,73.079474,73.07721599999999,73.026465,72.880585,72.854694,72.77948,72.73995,72.692847,72.594965,72.52551,72.40668,72.38937,72.394244,72.31122,72.25323499999999,72.18742999999999,72.143665,72.055914,72.02527,71.96806000000001,71.880646,71.825214,71.72459,71.56613,71.659106,71.543567,71.51876999999999,71.54518,71.435626,71.447375,71.355774,71.27103,71.34369000000001,71.2748,71.2947,71.21052,71.19061,71.17161999999999,71.27613,71.19927,71.15386,71.10397,71.10175000000001,71.06631999999999,71.134143,70.99502,70.97921,70.97660499999999,70.980255,70.980975,70.96864000000001,70.94336,70.95871,70.94217499999999,70.955426,70.943365,70.95223999999999,70.94671,70.9402,70.95973000000001,70.948267
76.87851,76.78752,76.621875,76.468396,76.38133,76.24927,76.06125,75.90006,75.87460300000001,75.68359000000001,75.65535,75.61623499999999,75.37283,75.33729,75.24417,75.110956,75.054913,75.02004,74.84635,74.678815,74.557654,74.63689000000001,74.47004,74.41449,74.33088000000001,74.16895,74.03853000000001,73.97936999999999,73.88857,73.862634,73.7519,73.52340000000001,73.551984,73.46909000000001,73.398145,73.23255,73.200604,73.21553,73.09294,73.03693,72.98868,72.904724,72.82482999999999,72.720605,72.665295,72.642993,72.57812,72.52038,72.466486,72.35569000000001,72.34548,72.25023999999999,72.24135,72.17645,72.06103,71.96061999999999,71.91767999999999,72.00429,71.92517000000001,71.850806,71.67683,71.655743,71.583923,71.482117,71.46233,71.501855,71.34643,71.35594499999999,71.37388999999999,71.34622,71.223584,71.294525,71.33699299999999,71.202423,71.140283,71.1735,71.094586,71.095013,71.06210999999999,71.02071,71.03574,71.049695,70.99124,70.94025,70.93730000000001,70.91798,70.85364,70.94338400000001,70.928485,70.84415,70.86629,70.878094,70.787115,70.91608,70.88009,70.86085,70.89475,70.89838999999999,70.90642,70.897974
76.82656,76.65081,76.53376,76.33194,76.215106,76.228625,76.09083000000001,76.00227,75.788904,75.67334600000001,75.57801500000001,75.346515,75.29271,75.13289,75.14912000000001,75.02500599999999,75.01378,74.852094,74.83418,74.639233,74.59517,74.49131,74.358453,74.29206500000001,74.14195,74.03182000000001,73.956055,73.92274,73.79555,73.67807,73.65414,73.49365,73.418054,73.45797999999999,73.24496,73.21708,73.1172,73.110535,73.05840500000001,73.01126000000001,72.90274,72.77236,72.77700999999999,72.65811,72.55499,72.53630000000001,72.482275,72.42602000000001,72.415265,72.31267,72.22932,72.20245,72.17943,72.09777,72.03708,71.953925,71.961194,71.81230500000001,71.8213,71.654,71.68917,71.565295,71.493585,71.37635,71.42229999999999,71.4017,71.3322,71.326764,71.19158,71.17161999999999,71.19188,71.19542,71.10742,71.11516,71.040125,71.03461999999999,70.96372,71.04865,70.99239,70.97045,70.967883,70.9699,70.93664,70.85141999999999,70.835913,70.943115,70.88067,70.79518399999999,70.79673,70.90549,70.93982,70.767566,70.765063,70.84335999999999,70.79863,70.76640599999999,70.774426,70.79371,70.78357,70.797845
76.80632299999999,76.57036000000001,76.46912,76.291345,76.261847,76.03359400000001,75.985455,75.818884,75.748114,75.59965,75.54047,75.41971,75.24121,75.19058,75.11567,75.04874,74.89614,74.78946499999999,74.74249,74.56831,74.50129,74.450037,74.37734,74.22703,74.17986499999999,73.939246,73.88732999999999,73.861633,73.63215,73.6842,73.531683,73.435065,73.39538,73.30969,73.266174,73.124225,73.091125,73.05112,72.94687,72.89988,72.850775,72.82512,72.69104,72.586505,72.497107,72.50903,72.405896,72.26774,72.35163,72.314465,72.2089,72.089716,72.08346,72.01974,71.92119,71.92314,71.83968999999999,71.692126,71.773376,71.6092,71.62216,71.47754499999999,71.43866,71.429724,71.28373400000001,71.32938,71.27754999999999,71.21164999999999,71.22831,71.17865,71.15921,71.160474,71.115045,71.01703499999999,71.00681,71.00176,70.993024,70.967224,70.922955,70.94476,70.904346,70.9238,70.882697,70.87481,70.88156000000001,70.78112999999999,70.78403,70.79445,70.74982,70.749976,70.761053,70.77342,70.703204,70.74242000000001,70.727783,70.7751,70.69075000000001,70.69998000000001,70.72781,70.71758
76.57388999999999,76.53477000000001,76.33727,76.26752,76.18759,76.01697,75.94705,75.794104,75.61623,75.50739,75.397504,75.278094,75.184686,75.10741,75.059357,74.845795,74.73784,74.69645,74.65182,74.50212400000001,74.31497,74.36767599999999,74.236743,74.197876,74.0273,73.91589400000001,73.850183,73.692395,73.593115,73.624207,73.49524,73.308984,73.24398,73.30490999999999,73.133875,73.09526,72.99395,73.01023,72.82397,72.80953,72.82166,72.610834,72.611743,72.52602,72.5218,72.43303,72.33786599999999,72.29776000000001,72.16137,72.155615,72.15949,72.05861,72.02049,71.95924,71.85062,71.820447,71.75562,71.71829,71.650616,71.53161,71.46065999999999,71.35213999999999,71.35081,71.306433,71.25063,71.1609,71.184937,71.21291,71.07382,71.058875,71.08212999999999,71.043335,71.06415,70.97619,70.97062,70.94755,70.9174,70.89595299999999,70.85655,70.726154,70.852216,70.847125,70.78082,70.76538000000001,70.740295,70.696344,70.78769,70.730615,70.68196400000001,70.68668,70.62836,70.55249,70.5814,70.67929000000001,70.6468,70.67648299999999,70.58497,70.6009,70.658624,70.68616
76.616956,76.430884,76.37289,76.19386,76.06137,75.917773,75.76957,75.73215300000001,75.5418,75.49054,75.28554,75.317224,75.145325,75.006494,74.970215,74.84104599999999,74.69707600000001,74.53814,74.52799,74.443854,74.40245,74.28213500000001,74.19145999999999,74.01653,73.95801,73.836475,73.79239,73.7947,73.61823000000001,73.45602,73.41562,73.22337999999999,73.27008,73.10273,73.11494,73.03746,72.93315,72.83393600000001,72.843896,72.72141,72.66107,72.62719,72.477747,72.41434000000001,72.42461,72.34281,72.30976000000001,72.26003,72.05672,72.113635,72.09098,71.99575999999999,71.92602500000001,71.90632000000001,71.75284400000001,71.763965,71.6659,71.60889,71.546216,71.49459,71.391223,71.34332,71.24267599999999,71.224896,71.22475,71.17481000000001,71.07698,71.114856,71.034265,71.02092999999999,70.994855,70.98048,70.99555000000001,70.899115,70.90533,70.87038,70.93742,70.88686,70.81066,70.71368,70.76088999999999,70.753015,70.707715,70.705133,70.64383000000001,70.65426599999999,70.6386,70.58104,70.61263,70.564667,70.630115,70.60332,70.59738,70.553406,70.54544,70.533856,70.59249,70.513214,70.56779,70.60421
76.51901000000001,76.365247,76.22832,76.06795,75.97816,75.77977,75.75503,75.61492,75.44551,75.359814,75.31864,75.18451,75.08847,74.87795,74.805914,74.75807999999999,74.686676,74.65048,74.36564,74.28105000000001,74.23742999999999,74.17042000000001,74.10938,73.998914,73.85666499999999,73.79714,73.67187,73.59270000000001,73.52412000000001,73.403345,73.30297,73.20256,73.12423,73.06826,73.03033,72.973364,72.839343,72.863074,72.69365,72.69218,72.590326,72.48194600000001,72.46649,72.40534699999999,72.34953,72.19678300000001,72.24946,72.19569,72.07284,71.95366,71.96851000000001,71.96096,71.8322,71.82467,71.62331,71.66296,71.55931000000001,71.55171,71.528503,71.444525,71.432043,71.297894,71.19299,71.18249,71.05747699999999,71.11032,71.04102,71.03037,70.99433,70.98305,70.9518,70.92667,70.82791,70.808295,70.852203,70.87666,70.79577,70.872473,70.73344,70.613666,70.70196999999999,70.706683,70.54312999999999,70.60123999999999,70.520123,70.51717,70.48608,70.547034,70.55045,70.52071,70.559174,70.460095,70.44727,70.5019,70.45066,70.49163,70.537036,70.52052,70.48316700000001,70.46716
76.48308,76.292584,76.18601,76.03321,75.95570000000001,75.75424000000001,75.64768000000001,75.54525,75.40448,75.339294,75.21916,75.16576,74.97742,74.88237000000001,74.8352,74.75699499999999,74.59387000000001,74.568585,74.35349,74.29778400000001,74.2293,74.1114,74.02292,73.939343,73.77265,73.64534,73.585223,73.511365,73.46055,73.3354,73.311163,73.18258,73.0835,73.005634,72.99408600000001,72.87556,72.790265,72.72551999999999,72.61515,72.54591,72.54682,72.494885,72.38632,72.29999000000001,72.17778,72.209906,72.093866,72.097516,71.96284,71.94497,71.83365,71.87292,71.731506,71.68201,71.68775000000001,71.60692,71.544196,71.50609,71.46228599999999,71.37266,71.24611999999999,71.221857,71.068353,71.14263,71.028094,71.03984,70.975134,71.00038500000001,70.94124000000001,70.774884,70.90677,70.81766,70.744745,70.65952,70.732935,70.70038,70.69032999999999,70.719196,70.62354,70.569916,70.64102,70.60152000000001,70.581573,70.55821499999999,70.477106,70.41948,70.484937,70.53647,70.44283,70.41624,70.389374,70.36828,70.41981,70.442316,70.450775,70.43301,70.47728,70.44386,70.40909400000001,70.39659
76.35686,76.290186,76.044183,75.983923,75.82228,75.72909,75.590216,75.46842000000001,75.39289,75.22974,75.156464,74.987036,74.92351,74.738336,74.72970000000001,74.66552,74.459344,74.4778,74.353467,74.13710999999999,74.06654999999999,73.928253,73.862695,73.81613999999999,73.69971000000001,73.56488,73.53274,73.48424,73.38691,73.230597,73.19387,73.11233,72.98895999999999,73.075275,72.91691,72.786536,72.57351,72.59773,72.60422,72.53233,72.45849,72.39074000000001,72.340656,72.16615,72.11153,72.148956,72.11386,72.006726,71.96143,71.8452,71.82224,71.722577,71.72136,71.652454,71.559406,71.525836,71.46593,71.456415,71.46826999999999,71.32613,71.150604,71.21473,71.087067,71.04974999999999,70.95124,70.97558000000001,70.882806,70.895917,70.86733000000001,70.854376,70.758105,70.82703000000001,70.69838999999999,70.64375,70.59389999999999,70.66015999999999,70.54965999999999,70.68415999999999,70.517566,70.593646,70.48727,70.569275,70.546826,70.431006,70.37341,70.401263,70.387384,70.41235,70.3998,70.419867,70.33476,70.3888,70.39007000000001,70.32563,70.397565,70.420715,70.345197,70.38143,70.41742,70.31316000000001
76.30202,76.1103,75.987274,75.866876,75.82039999999999,75.661456,75.512354,75.42550700000001,75.29834600000001,75.19159499999999,75.16105300000001,74.960724,74.89669,74.710284,74.58459500000001,74.52813,74.41101,74.31858,74.28909999999999,74.082104,74.044196,73.966223,73.8765,73.744403,73.60688,73.5633,73.46288,73.37012999999999,73.34995,73.19886,73.11505,73.04477,73.03457,72.92046500000001,72.78589500000001,72.614215,72.60162,72.602094,72.56183,72.507446,72.38527,72.352124,72.21847,72.19722,72.012036,72.09319,72.006934,71.95849,71.881885,71.78161,71.74442,71.65746,71.606775,71.47828,71.47444,71.36251,71.31539000000001,71.33407600000001,71.23904,71.23591300000001,71.123505,71.07912999999999,71.03634,71.061273,70.86928,70.86557,70.907404,70.8297,70.76008,70.64649,70.73089999999999,70.68551,70.70327999999999,70.52389,70.495996,70.49211,70.51827399999999,70.56712,70.54646,70.393805,70.37854999999999,70.467523,70.45714000000001,70.32890599999999,70.3552,70.29835,70.39469,70.385767,70.32512,70.27071,70.30602,70.18055000000001,70.21756,70.297766,70.268164,70.182965,70.299384,70.29463,70.20198,70.25703
76.237854,76.101764,75.89049,75.786615,75.75964,75.65630999999999,75.431494,75.325635,75.25743,75.14094,75.05179000000001,74.901416,74.789233,74.675696,74.603937,74.49407,74.334204,74.24514,74.205536,74.122766,73.99352,73.85914,73.75733,73.664484,73.537744,73.49647,73.42064,73.37677,73.21092,73.143555,73.1086,72.98537999999999,72.94483,72.860626,72.74820600000001,72.6887,72.58085,72.49374,72.423303,72.38426,72.38982999999999,72.240826,72.14406,72.06275600000001,72.129034,71.933374,71.90624,71.89159,71.73614,71.72614999999999,71.600977,71.486053,71.61654,71.50001,71.490436,71.36192600000001,71.266003,71.24534,71.21082,71.17532,71.11534,71.04039,71.03752,70.90392,70.9841,70.91617,70.809,70.76035,70.76829000000001,70.65869,70.67796,70.59286,70.633545,70.52154,70.52239,70.48996600000001,70.40571,70.47623999999999,70.42474,70.311005,70.42347,70.463635,70.386176,70.30956,70.240125,70.266205,70.28886,70.267786,70.228876,70.2169,70.21206,70.19365,70.16203,70.24267,70.33778,70.28267,70.213464,70.165436,70.19521999999999,70.2237
76.07054000000001,75.93340500000001,75.87729,75.755334,75.61907,75.54417,75.38739000000001,75.251086,75.23652,75.1433,74.98342,74.876605,74.69618,74.5073,74.41505,74.463,74.330664,74.18916,74.11917,74.03634600000001,73.95333000000001,73.83931,73.783154,73.55602999999999,73.544403,73.41166,73.3287,73.30073999999999,73.17095,73.092535,72.95522,72.990045,72.827136,72.81031,72.740753,72.61994999999999,72.477655,72.479266,72.39619,72.39229,72.34207,72.24946,72.128253,72.06165,72.03778,71.93766500000001,71.824506,71.74798,71.703766,71.62749,71.59432000000001,71.59738,71.507916,71.45018,71.383673,71.38205,71.23813,71.17166,71.1708,71.09163,71.04812,71.04165,70.930756,70.86958,70.784,70.92049,70.73231,70.67096599999999,70.61556,70.58556999999999,70.64487,70.540674,70.50448,70.39574999999999,70.360815,70.37652,70.395105,70.415784,70.35238000000001,70.27753,70.417816,70.32256,70.254865,70.23726,70.157465,70.21892,70.1739,70.23112,70.16988,70.11451,70.21336,70.12714,70.06921,70.206323,70.10594,70.13092,70.167474,70.20372,70.09652,70.081006
76.11474,75.8663,75.773566,75.66477,75.60267,75.36983000000001,75.32977,75.23044,75.10952999999999,74.9518,74.87951000000001,74.77078,74.63533,74.49494999999999,74.398376,74.41215,74.24422,74.1071,74.07362,73.95442,73.90702,73.73771,73.640814,73.54159,73.5451,73.35015,73.23505,73.19960999999999,73.148206,73.01302,72.94901999999999,72.89678,72.84862000000001,72.71515000000001,72.60803,72.554755,72.447656,72.36508,72.30064,72.29040499999999,72.249274,72.176965,72.072943,72.011804,71.945984,71.8078,71.71961,71.660474,71.647516,71.55194,71.47804,71.470465,71.47031,71.36775,71.225116,71.28161,71.068726,71.153204,71.14911,71.05328399999999,71.01529000000001,70.951044,70.78461,70.76575299999999,70.757404,70.76597000000001,70.632806,70.62573,70.580115,70.46200999999999,70.509735,70.51734,70.45673000000001,70.40357,70.35024,70.320795,70.39348,70.40784,70.31454,70.20369,70.31959,70.22128000000001,70.2092,70.213104,70.1748,70.11599,70.147943,70.18046000000001,70.13298,70.08191500000001,70.10934999999999,70.08878,70.05499,70.14964,70.093085,70.06521000000001,70.123694,70.075684,69.99775,70.089325
75.971484,75.84357,75.690906,75.65071400000001,75.566833,75.39633,75.25192,75.17298,75.015796,74.97592,74.79823999999999,74.781036,74.59033,74.48019000000001,74.42215,74.358966,74.23913999999999,74.04346000000001,74.04281,73.83138,73.680634,73.68925,73.61449999999999,73.40436,73.406323,73.266974,73.21335400000001,73.135974,73.120734,73.02595,72.88658000000001,72.81522,72.689954,72.535834,72.61728000000001,72.509125,72.418195,72.27533600000001,72.28821,72.256805,72.10222999999999,72.092633,72.02368,71.89070000000001,71.82305,71.79654000000001,71.67200299999999,71.69493,71.62307,71.53106,71.45595,71.417126,71.36924400000001,71.31987000000001,71.177527,71.123785,71.123517,71.0944,71.05854500000001,71.0304,70.95653,70.87091699999999,70.72874,70.748926,70.67867,70.732776,70.59129,70.54540399999999,70.560596,70.48573999999999,70.51161499999999,70.510516,70.40867,70.3275,70.28549000000001,70.31804,70.284595,70.22459,70.26051,70.24274,70.163104,70.26422,70.12908999999999,70.07057499999999,70.071674,70.1163,70.154877,70.088367,70.04565,70.032965,69.9583,69.95382,70.010095,69.986945,69.94679,70.05055,70.024866,70.0398,69.97036,70.04347
75.94475,75.780896,75.718115,75.52983400000001,75.414154,75.26975999999999,75.16040000000001,75.0282,74.99494999999999,74.92234499999999,74.7833,74.67636999999999,74.487683,74.360333,74.368176,74.25103,74.09842,73.97092,73.86729,73.83652,73.730707,73.62724,73.528394,73.470605,73.357794,73.243445,73.169727,73.12116999999999,73.00548,72.88296,72.78436,72.728815,72.608356,72.61219,72.471606,72.37091699999999,72.337616,72.23094499999999,72.18802500000001,72.159375,72.080255,72.02639,71.920703,71.73697,71.805396,71.66130000000001,71.61063,71.559937,71.520624,71.45664000000001,71.457324,71.302673,71.310077,71.243866,71.17762,71.12030999999999,71.10397,71.061346,71.00471,70.92645999999999,70.92563,70.7104,70.667236,70.66697400000001,70.60551000000001,70.60956999999999,70.59455,70.44402,70.47251,70.42164299999999,70.422504,70.36159,70.279156,70.3063,70.247546,70.22283300000001,70.222375,70.259424,70.241766,70.18418,70.13728599999999,70.06607,70.091125,70.01554,70.054126,70.028467,70.00836000000001,70.063184,69.93057999999999,69.97054,69.93758,69.85078,70.00651,70.06340300000001,69.96652,69.98643,69.99005,69.88885,69.90115399999999,69.9786
75.83355,75.74409,75.58405,75.45455,75.351086,75.23924,75.21425,74.98965,74.969824,74.81984,74.688525,74.53895,74.50904,74.307904,74.158685,74.14468000000001,74.008673,73.96645,73.84778,73.6874,73.65077,73.589154,73.48338,73.365314,73.251294,73.16298,73.15968000000001,73.13401999999999,73.013586,72.761597,72.772076,72.7191,72.542255,72.59189,72.389966,72.38343499999999,72.277216,72.15,72.14474,72.06415,71.95318999999999,71.94597,71.78618,71.786316,71.70054999999999,71.6779,71.575946,71.50318,71.52455,71.41926,71.376324,71.297485,71.3101,71.22856,71.132965,71.07972,71.01351,71.02329999999999,70.923456,70.75077999999999,70.79279,70.78834,70.68306,70.58833,70.46727,70.49059,70.455994,70.375446,70.40499,70.32493,70.351044,70.21709,70.21402,70.17626,70.214996,70.19679599999999,70.177167,70.11413999999999,70.037573,70.108075,70.048755,70.08041399999999,70.02961,70.008594,69.97814,69.991943,69.946893,69.94452,69.921783,69.90897,69.89075,69.79511,69.857074,69.890424,69.907764,69.86449,69.796826,69.802795,69.837524,69.82039
75.846497,75.69581,75.54047,75.46145,75.371356,75.27385000000001,75.154785,74.99481,74.84020000000001,74.75177599999999,74.6707,74.522626,74.490875,74.251825,74.27378999999999,74.03202,73.981384,73.97794,73.80205,73.70902,73.54647,73.53932,73.42005,73.29246,73.201337,73.13079,73.0395,72.910236,72.834717,72.70692,72.596655,72.53988000000001,72.54648,72.47201,72.39317,72.33477,72.197485,72.11051599999999,72.05493,71.997736,71.96837000000001,71.859235,71.79961,71.69281600000001,71.70090300000001,71.572815,71.58151000000001,71.4745,71.42157999999999,71.326086,71.14563000000001,71.27333999999999,71.19777,71.114075,71.062354,71.04973,70.99852,70.907117,70.862994,70.83932999999999,70.76848,70.69640000000001,70.54756499999999,70.49041,70.46835999999999,70.534894,70.420807,70.323645,70.39616,70.257587,70.30051,70.19973,70.23177,70.17447,70.11953,70.124194,70.16084,70.07245,69.98855999999999,69.97951,70.02452,70.04847,69.91420000000001,69.884924,69.85436,69.82567,69.940594,69.892004,69.82853,69.87087,69.78373400000001,69.83021,69.800964,69.89215,69.83771,69.76254,69.78031,69.7696,69.802716,69.84734
75.85878,75.640796,75.49327,75.33221,75.267346,75.08203,75.04681000000001,74.937787,74.75429,74.71355,74.62295,74.45892,74.38165000000001,74.27072,74.130237,74.01147,74.02011,73.77382,73.733093,73.59107,73.58132,73.50923,73.42906500000001,73.23281,73.15426599999999,73.114795,73.02790999999999,72.98465,72.841223,72.696075,72.538135,72.58753,72.52209,72.41905,72.35907,72.2072,72.127673,72.12178,71.97041,71.908813,71.90912499999999,71.857056,71.734784,71.642584,71.64364,71.51883000000001,71.387744,71.415594,71.25849,71.25298000000001,71.17481699999999,71.12853,71.15549999999999,71.07549,71.039886,70.95591399999999,70.91582,70.905457,70.81236,70.64659400000001,70.64594,70.50303,70.51369600000001,70.45221599999999,70.4183,70.418164,70.30412,70.36057,70.27533,70.20466300000001,70.23305,70.166003,70.12666,70.15564,70.14725,69.997974,69.999506,70.06473,70.027277,69.992224,70.032745,69.94486,69.83979000000001,69.79603,69.790845,69.79411,69.836456,69.748395,69.72909,69.8535,69.79404,69.680115,69.697473,69.7635,69.776636,69.77984000000001,69.716846,69.737573,69.77356,69.69184
75.64243,75.607733,75.43728999999999,75.323846,75.25192,75.042126,74.96828000000001,74.73876299999999,74.735614,74.59011000000001,74.50373499999999,74.40837400000001,74.261584,74.161536,74.07926,73.97521400000001,73.753174,73.68181,73.6539,73.529004,73.41788,73.36947,73.28958,73.18003999999999,73.176404,73.0273,72.860626,72.87035,72.78969,72.688635,72.59544,72.47409999999999,72.436316,72.401373,72.285803,72.217145,72.056415,71.97406600000001,71.9605,71.856116,71.823956,71.752325,71.644965,71.56803599999999,71.5256,71.49385,71.45394,71.3423,71.26163299999999,71.26984,71.17879,71.096484,71.10736,71.07730000000001,70.95715,70.92348,70.836694,70.85479000000001,70.72574,70.69889500000001,70.51728,70.50865999999999,70.44623,70.33786599999999,70.39655,70.33443600000001,70.22322,70.27736999999999,70.1944,70.14917,70.15886,70.170276,70.13307999999999,69.990027,70.05034,69.955133,69.954224,69.93995,69.93616,69.8352,69.966284,69.84270599999999,69.8177,69.8312,69.725885,69.69451000000001,69.79556,69.80827000000001,69.73369,69.76038,69.65555,69.690515,69.70155600000001,69.68053,69.75256,69.66839999999999,69.69877,69.658325,69.661975,69.65069600000001
75.629364,75.48288,75.34349999999999,75.29885,75.19682,75.084283,74.844684,74.78404,74.69282,74.50623,74.433704,74.36798999999999,74.19599,74.156384,74.05118999999999,73.913654,73.76937000000001,73.73398,73.64718,73.51128,73.432275,73.30591,73.25127,73.1614,72.979895,72.99974999999999,72.92531,72.75811,72.62385,72.63655,72.556494,72.4285,72.42242999999999,72.314734,72.23667,72.153864,71.944226,71.96486999999999,71.894135,71.78179,71.62215599999999,71.57003999999999,71.552716,71.45162,71.455426,71.435095,71.37902,71.209796,71.141187,71.188,71.12143999999999,71.07428999999999,71.038275,70.98398999999999,70.920483,70.83547,70.80897999999999,70.776404,70.6943,70.59204,70.54025,70.51853,70.433234,70.396,70.33128,70.32042,70.20336,70.14547,70.135126,70.069586,70.09884,70.097955,69.9442,70.004626,69.92549,69.894666,69.91454999999999,69.8274,69.90569500000001,69.766174,69.812994,69.853625,69.785834,69.68003999999999,69.718823,69.568726,69.706085,69.67793,69.679694,69.634985,69.63077,69.635065,69.62131000000001,69.63146400000001,69.72547,69.617303,69.73515,69.63966,69.57657,69.585004
75.55008000000001,75.417633,75.30211,75.22776,75.15605000000001,74.90305,74.86324499999999,74.729156,74.65164999999999,74.52249,74.372534,74.226715,74.15717,74.02767,74.005707,73.89202,73.76716300000001,73.663116,73.577985,73.42222000000001,73.37724,73.28549000000001,73.192847,73.072266,72.87164,72.82689,72.80865,72.712616,72.58874499999999,72.569885,72.481494,72.30597,72.36944600000001,72.19269,72.1532,72.102576,71.95962,71.92170999999999,71.86425,71.73699,71.69215,71.601306,71.63486,71.419525,71.417896,71.35818,71.25749499999999,71.25359,71.14444,71.11975,71.057526,70.98573,70.94633999999999,70.94890000000001,70.78857400000001,70.776166,70.712415,70.67704,70.562787,70.48113,70.53021,70.366986,70.36248,70.289905,70.25399999999999,70.22781,70.12877999999999,70.157556,70.048315,70.07323,70.006915,69.978284,69.981,69.94963,69.854175,69.85816700000001,69.875867,69.838116,69.80136999999999,69.767957,69.770105,69.74861,69.690814,69.68210400000001,69.636884,69.66318,69.60857,69.62543,69.60105,69.57508,69.51142,69.544836,69.56471,69.45594,69.59369000000001,69.53735,69.51988,69.495996,69.50959,69.48004
75.474005,75.35652999999999,75.2829,75.22378,75.034863,74.99149,74.84628000000001,74.577124,74.54731000000001,74.50634,74.42238,74.22779,73.995166,73.95113,73.95345,73.85136,73.711816,73.62460999999999,73.47213,73.366693,73.31061,73.23681,73.08054,73.03718,72.895465,72.79995,72.69489,72.603357,72.56323,72.468854,72.34849,72.29829,72.27468999999999,72.18706,72.07269,71.9924,71.83788,71.807574,71.76673,71.697455,71.60431,71.54856600000001,71.482983,71.44496000000001,71.32666,71.224756,71.173425,71.1503,71.073627,71.07758,71.08214000000001,70.911884,70.947876,70.880383,70.7646,70.79785000000001,70.65735,70.57621,70.58133000000001,70.47986,70.47757,70.367017,70.29166000000001,70.196747,70.18024,70.14394999999999,70.11866,70.10704,70.004565,70.043634,69.973315,69.92687,69.951074,69.89965,69.83615999999999,69.81914,69.80843,69.769366,69.7604,69.66788,69.731195,69.699615,69.6575,69.64252,69.6501,69.570264,69.66914,69.54609400000001,69.52421000000001,69.509357,69.502515,69.49623,69.48323400000001,69.52584,69.48371,69.4777,69.45836,69.4674,69.51135000000001,69.49452
75.46167,75.351056,75.26478,75.09365,75.029144,74.84229,74.77311,74.59012,74.47954999999999,74.396234,74.3144,74.13762,74.010785,73.957306,73.815466,73.794464,73.62951000000001,73.47785999999999,73.42210700000001,73.35119,73.29691,73.22415,73.129913,72.97415,72.7868,72.757837,72.62324,72.55945,72.51633000000001,72.410144,72.34286,72.28581,72.16197,72.07541,72.005475,71.95782,71.863086,71.724347,71.70219,71.680255,71.58125,71.46603,71.41920999999999,71.37966,71.30721,71.25318,71.17576,71.114526,71.0504,71.06264999999999,70.959143,70.93463,70.91525,70.746173,70.764435,70.61235400000001,70.644165,70.51873,70.570386,70.43544,70.43735000000001,70.25115,70.25185,70.232623,70.08273,70.19166,70.08639500000001,70.025104,69.91040000000001,69.91785999999999,69.90718000000001,69.81482,69.89781,69.71509,69.72501,69.765027,69.73404000000001,69.8066,69.63156000000001,69.59954,69.70026,69.628394,69.51872,69.56883,69.525806,69.50553599999999,69.53458,69.45527,69.509906,69.531354,69.402356,69.412823,69.42129,69.45462,69.49207,69.44083,69.43715,69.39929,69.399164,69.46522
75.45958,75.32451999999999,75.17319,75.129834,75.05116000000001,74.832684,74.74784,74.576074,74.524274,74.36120600000001,74.25889,74.15277,73.955115,73.89167499999999,73.69179,73.707214,73.56559999999999,73.43986,73.36332,73.22558000000001,73.26689,73.10158,73.05172,72.963385,72.80426,72.66633,72.65566,72.59711,72.45153,72.43573599999999,72.34591,72.23476000000001,72.123615,72.08254,72.006195,71.81923,71.797815,71.69539999999999,71.67184999999999,71.573193,71.5187,71.48693,71.382965,71.323773,71.25303,71.190436,71.12445,71.07579,71.034143,70.969867,70.9567,70.82019,70.811707,70.772656,70.66656,70.516327,70.555615,70.55897,70.47363,70.398413,70.32140000000001,70.29458600000001,70.25165,70.19351,70.09272999999999,70.0965,69.97806,70.018396,69.863904,69.87895499999999,69.95556,69.860254,69.86458,69.65113,69.68027,69.71317,69.62781,69.66333,69.59186,69.662103,69.49673,69.556067,69.519543,69.484357,69.45232,69.466736,69.44825399999999,69.40696,69.40003,69.4183,69.39949,69.345764,69.4441,69.33342,69.438873,69.37541,69.29867,69.34058,69.36421,69.4418
75.36615,75.22995,75.113696,75.07822,74.82941,74.780426,74.61591,74.619727,74.345715,74.23293,74.22290000000001,74.05975,73.961334,73.83233,73.72301999999999,73.62836,73.592773,73.486163,73.33278,73.28245,73.15182999999999,73.07608,73.010986,72.90285,72.794275,72.70325,72.56466,72.454346,72.454553,72.30014,72.33909,72.15666999999999,72.16753,72.052216,71.89000999999999,71.8985,71.70707,71.64317,71.5605,71.51506,71.4796,71.390674,71.23040999999999,71.20097,71.19756,71.16541,71.09668,71.078156,70.89101600000001,70.93948400000001,70.843994,70.84627,70.719446,70.73187,70.7202,70.55746500000001,70.48282,70.524725,70.37913999999999,70.31142,70.260565,70.153094,70.141235,70.0294,70.042456,70.034375,69.97380000000001,69.90082,69.812787,69.8059,69.8055,69.70514,69.78634,69.60713,69.59274,69.59977,69.562006,69.70237,69.53037,69.54736299999999,69.514813,69.53876299999999,69.51608,69.45047600000001,69.41547,69.43336000000001,69.39622,69.451855,69.42537,69.29053,69.330725,69.33604,69.32469,69.278955,69.34102,69.37548000000001,69.29778,69.31549,69.338763,69.309845
75.36191,75.245105,75.16783000000001,74.94699,74.858704,74.63582,74.518463,74.467664,74.3963,74.212036,74.12217000000001,74.04308,73.88896,73.790344,73.71473,73.61675,73.549835,73.35516,73.284265,73.116394,73.08054,73.02747000000001,72.944434,72.80080000000001,72.66178,72.630475,72.585565,72.496655,72.43665999999999,72.279364,72.14466999999999,72.12496300000001,72.047675,71.97888,71.94050999999999,71.8332,71.75159,71.553296,71.59107,71.558386,71.40160499999999,71.31073599999999,71.25647599999999,71.178143,71.15071,71.09219399999999,71.05342399999999,70.960425,70.92899,70.794275,70.790704,70.71621999999999,70.66502,70.72092,70.64507,70.527814,70.492236,70.4317,70.3167,70.27603,70.23076999999999,70.141364,70.039575,70.0367,69.98106,69.88425,69.87451999999999,69.91103000000001,69.83926,69.81530000000001,69.831586,69.67960000000001,69.66853599999999,69.592664,69.592944,69.567316,69.606104,69.609344,69.54798600000001,69.481274,69.451105,69.476324,69.41056,69.34642,69.44552,69.38472,69.41742,69.33522,69.32997,69.33442,69.30458999999999,69.2909,69.28996,69.23332,69.24592,69.28103999999999,69.32557,69.306116,69.30685,69.242633
75.25207,75.12396,75.06893,74.91014,74.81609999999999,74.6917,74.530035,74.447784,74.3395,74.17405,74.112695,73.99339599999999,73.817426,73.71743000000001,73.61857,73.66488000000001,73.539435,73.38875,73.288354,73.21524,73.081213,73.038586,72.91749,72.75651,72.692584,72.5022,72.50599,72.39281600000001,72.36073999999999,72.231775,72.23019000000001,72.11533,71.95093,71.87201999999999,71.822064,71.75511,71.65281999999999,71.54169,71.5571,71.44308,71.39299,71.309125,71.201953,71.165967,71.128094,71.061414,71.07955,70.92534,70.81085,70.77193,70.79184599999999,70.67960000000001,70.50944,70.648975,70.51592000000001,70.45555399999999,70.41938999999999,70.35303300000001,70.266974,70.24252,70.17618999999999,70.0537,70.116614,70.004407,69.95184,69.8552,69.894995,69.78241,69.771106,69.71317,69.734686,69.67377300000001,69.62793,69.47123400000001,69.524695,69.50167,69.52315,69.40299999999999,69.43489,69.49375599999999,69.51415,69.38606999999999,69.38068,69.38951399999999,69.35746,69.300555,69.27369,69.24689,69.28364,69.32012,69.24954,69.23232,69.225256,69.27383,69.28666,69.26684,69.273987,69.27962,69.19331700000001,69.19034400000001
75.24036,75.069653,74.963245,74.86355999999999,74.75055499999999,74.54462,74.47405,74.27928,74.236774,74.116284,74.0514,73.942554,73.78551999999999,73.7221,73.609924,73.50458,73.39673,73.327185,73.23262,73.096265,73.0,73.01706,72.78605999999999,72.746014,72.68096,72.562646,72.423663,72.35787400000001,72.27862999999999,72.17486,72.13426,72.06155,71.930884,71.87191,71.76644999999999,71.74363,71.69886,71.53688,71.45932,71.37622999999999,71.27013500000001,71.253845,71.154926,71.17677599999999,71.07373700000001,71.052026,70.95367999999999,70.929126,70.85691,70.776685,70.684955,70.6495,70.614575,70.49534,70.50471999999999,70.39728,70.32975,70.385535,70.28578,70.163464,70.02497,70.135095,69.937866,69.91236599999999,69.818066,69.877386,69.76817600000001,69.706305,69.63208,69.693164,69.63591,69.559326,69.562134,69.57786999999999,69.45521,69.42716,69.42031,69.4422,69.37312,69.306635,69.44827000000001,69.390906,69.24443,69.34595,69.321466,69.22184999999999,69.21558,69.26309,69.236084,69.188214,69.171466,69.219165,69.16682,69.13521,69.163983,69.19068,69.192444,69.17981999999999,69.16967,69.14056000000001
75.17239,74.99965,74.97395,74.79121,74.73182,74.54675999999999,74.52252,74.29373000000001,74.24732,74.09349,74.01086000000001,73.90572,73.704004,73.66047999999999,73.50675700000001,73.4665,73.34948,73.265796,73.2207,73.04434,72.956256,72.93219,72.87612,72.75093000000001,72.58155000000001,72.487146,72.44103,72.30247,72.27471,72.11918299999999,72.05251,71.902783,71.878656,71.6926,71.73969,71.68913,71.53388,71.481177,71.37458000000001,71.377313,71.26187,71.19597,71.1791,71.13253999999999,71.03893000000001,70.938556,70.904205,70.843854,70.815955,70.75177599999999,70.6156,70.56757,70.48772,70.48876299999999,70.39747,70.33409,70.22689,70.349176,70.189716,70.17469,70.078174,69.959503,69.91704,69.83527000000001,69.798596,69.792474,69.65121500000001,69.66561,69.59884600000001,69.596606,69.56893,69.56915000000001,69.56161,69.47443,69.48667,69.399146,69.35951,69.40204,69.34678,69.36303000000001,69.31961700000001,69.34646599999999,69.18667,69.27557399999999,69.26209,69.13981,69.20361,69.17235,69.09289,69.20812,69.16481999999999,69.19502,69.13723999999999,69.15823,69.1177,69.17295,69.12564,69.168304,69.171533,69.17550700000001
75.196387,75.02158,74.90898999999999,74.76386,74.743,74.48427000000001,74.31767599999999,74.32862,74.2509,74.005646,73.97673999999999,73.87664,73.630237,73.623505,73.53961000000001,73.39918,73.32898,73.23541,73.16612,73.03193,72.905676,72.846893,72.79661,72.63305,72.53504000000001,72.50669,72.30939,72.29575,72.17857699999999,72.12368000000001,72.04153,71.819934,71.77608000000001,71.77336,71.76064,71.61861999999999,71.562946,71.41177,71.380963,71.25891,71.22783,71.16679,71.10949000000001,71.03946499999999,71.027576,70.887024,70.75007000000001,70.71224,70.7129,70.64781500000001,70.57185,70.50503,70.51345,70.44006,70.37948,70.32905,70.25262000000001,70.16395,70.17318,70.139905,70.02224,69.95954,69.87537999999999,69.78213500000001,69.757056,69.74109,69.73508000000001,69.58135,69.64773,69.461584,69.604034,69.530597,69.462555,69.43215000000001,69.437994,69.34545,69.33803,69.285297,69.34256,69.216156,69.22248499999999,69.25050999999999,69.247473,69.17442,69.14585,69.10521,69.19243,69.216425,69.121344,69.171704,69.13672,69.10947,69.07869,69.097046,69.06392,69.12287599999999,69.157263,69.09966,69.108014,69.059064
75.12046000000001,74.92663,74.871436,74.72175,74.63551,74.506134,74.301556,74.24061,74.17972,74.02712,73.82311,73.794727,73.64974,73.64764,73.49778,73.417944,73.34319500000001,73.1831,73.09812,72.94776,72.84463500000001,72.712384,72.73555,72.632806,72.54766,72.39448999999999,72.39559299999999,72.22533,72.19367700000001,72.07838000000001,71.95815999999999,71.85050700000001,71.772614,71.686145,71.64174,71.598254,71.46674,71.46052,71.28425,71.24989000000001,71.172974,71.18816000000001,71.100085,71.078064,70.91209,70.83206,70.852094,70.72337999999999,70.67607000000001,70.60021,70.59429,70.49469,70.49456,70.438074,70.32738,70.22758999999999,70.231116,70.17852,70.13677,70.001355,69.979724,69.833374,69.82727700000001,69.774536,69.760095,69.705615,69.672504,69.67522,69.47866,69.4462,69.51337,69.37971,69.37586,69.399023,69.305225,69.2873,69.4364,69.26154,69.27678,69.27763999999999,69.24616999999999,69.22806399999999,69.18746999999999,69.14315,69.08345,69.11205,69.12032500000001,69.0798,69.0624,69.06281,69.103284,69.02759999999999,69.04740000000001,69.039075,69.10078999999999,69.03335,69.0482,69.076996,68.99596,69.08867000000001
75.071497,74.93591,74.7637,74.6827,74.6,74.475806,74.270386,74.19345,74.07171600000001,74.05397,73.87343,73.759607,73.55354,73.51938,73.43065,73.3665,73.24955,73.12243,73.02717,73.00205700000001,72.874976,72.76587500000001,72.65974,72.535376,72.43928,72.37314,72.252167,72.171216,72.108295,72.02033,71.99562,71.86240000000001,71.71826,71.69819,71.63233,71.529047,71.33726,71.38241000000001,71.29524,71.21891500000001,71.149524,71.14606,70.97831,70.89053,70.92558,70.82575,70.76149000000001,70.67986499999999,70.62756,70.561914,70.466943,70.466583,70.416595,70.37423,70.271844,70.26452,70.16211,70.14497,70.088837,70.02962,69.912256,69.847516,69.750696,69.73397,69.73194,69.573724,69.61505,69.44048000000001,69.504034,69.47664,69.471893,69.41616,69.353845,69.32938,69.2867,69.227435,69.27488,69.249335,69.267426,69.199274,69.2276,69.1853,69.12631999999999,69.10249999999999,69.062286,69.12102999999999,69.089154,69.07480000000001,69.04909,69.002966,69.03084,69.01639,69.057275,69.04787,69.02673999999999,68.98876,69.032477,69.02356,69.01482999999999,69.00829999999999
74.95063,74.834406,74.72195,74.69045,74.49506,74.33083500000001,74.23316700000001,74.11789999999999,73.98768,73.865173,73.842737,73.721515,73.62877,73.55268600000001,73.420593,73.31862,73.23251,73.106476,72.965283,72.85510000000001,72.817114,72.68053,72.62077000000001,72.45806,72.35574299999999,72.33202,72.272766,72.17328,72.08902,71.93233000000001,71.782745,71.736884,71.70438,71.588104,71.559393,71.426324,71.38978,71.282086,71.24547,71.172284,71.174634,71.08742,70.98579,70.91410499999999,70.89814,70.79645000000001,70.783,70.63881,70.56546,70.48159000000001,70.5171,70.49304,70.40932000000001,70.29641000000001,70.20989,70.19341,70.210846,70.09783300000001,70.04971,69.98112,69.920105,69.83663,69.79805999999999,69.65203,69.680273,69.653143,69.5616,69.39369,69.42229999999999,69.42967999999999,69.45956,69.34715,69.34911,69.343616,69.263055,69.26829000000001,69.22648000000001,69.20866,69.17229599999999,69.14556,69.11513,69.1589,69.05024399999999,69.023474,69.034155,69.04923,69.04286499999999,69.028687,69.01070999999999,68.98668,68.94773599999999,68.999786,69.02720000000001,68.95541399999999,69.02518,68.968304,68.98019000000001,68.99367,68.980664,68.993964
74.947705,74.76187999999999,74.662274,74.599457,74.509326,74.39459000000001,74.205066,74.13523599999999,74.00929599999999,73.918835,73.79787,73.67834500000001,73.56475,73.45327,73.350995,73.21697,73.175775,73.150183,72.964417,72.792804,72.71463,72.73484499999999,72.56711,72.46346,72.3141,72.293256,72.191547,72.11854,72.049554,71.885175,71.80294,71.725305,71.683496,71.54615,71.5125,71.39121,71.337775,71.28569999999999,71.19889500000001,71.08752,71.15301500000001,71.07371,70.918134,70.77497,70.904395,70.746875,70.69253499999999,70.58559,70.557416,70.460486,70.50321,70.39663,70.40520599999999,70.289825,70.13277000000001,70.109674,70.119635,69.970703,70.001074,69.934735,69.81609999999999,69.73424,69.62851,69.549445,69.59322499999999,69.57964,69.500824,69.457263,69.38612,69.35682399999999,69.40711999999999,69.33471,69.25685,69.29438,69.15747,69.18426,69.20273,69.177637,69.14083000000001,69.06403,69.153314,69.09443,69.045233,69.05123,69.04672000000001,69.037537,69.006793,68.98883,68.982764,68.95746,69.01467,68.91432499999999,68.91252,68.95226,68.94703,68.9671,68.95124,68.938226,68.86462,68.94563600000001
74.86305999999999,74.7794,74.636206,74.548486,74.43611,74.31078,74.17693,74.03368,73.975946,73.784955,73.735034,73.608875,73.53900999999999,73.403314,73.32091,73.171674,73.110175,73.04928,72.87688,72.78217,72.72011,72.611285,72.61786,72.39871000000001,72.30608,72.151746,72.18732,71.98596,72.00928300000001,71.76408,71.80517,71.69371,71.58847,71.522614,71.464935,71.36359,71.246967,71.2117,71.10244,71.16697,70.979877,71.007874,70.970953,70.772656,70.70432,70.74221,70.67166,70.60641000000001,70.55731,70.397784,70.425726,70.40301,70.28805,70.29963000000001,70.13376,70.10859,69.98792,69.971045,69.96711400000001,69.90538000000001,69.80055999999999,69.71163299999999,69.550775,69.57763,69.594446,69.49609000000001,69.499414,69.44632,69.350256,69.323596,69.33001,69.325885,69.2601,69.239886,69.15037,69.17485,69.143195,69.166675,69.12287599999999,69.11240000000001,69.06019,69.08601999999999,69.069684,69.04131,68.9663,68.99788,69.00532,68.93948400000001,68.948267,68.91506000000001,68.87938,68.91042,68.95014599999999,68.941656,68.98116,68.92224999999999,68.925165,68.934546,68.95680999999999,68.90169
74.850995,74.734924,74.60688999999999,74.53736599999999,74.44596,74.25001999999999,74.06143,73.965436,73.9783,73.82524,73.76406,73.56207,73.490283,73.37303,73.34208,73.236414,73.08632,72.89009,72.86647,72.81984,72.68926,72.540356,72.533813,72.36,72.26799,72.21563,72.08445,72.02261999999999,71.97502,71.85056,71.76741,71.70634,71.63626000000001,71.527216,71.47315,71.32997,71.23311,71.15177,71.19212,71.07617,71.0112,70.93008999999999,70.80334500000001,70.798535,70.725165,70.694366,70.59371300000001,70.57097,70.42792399999999,70.371716,70.3586,70.32371,70.25099,70.17634000000001,70.11972,70.07816,70.03218000000001,69.911865,69.906934,69.790204,69.732416,69.713995,69.60200999999999,69.48201,69.51466,69.51537499999999,69.42084,69.37586,69.312646,69.31343000000001,69.20951,69.18955700000001,69.22844,69.232947,69.151306,69.070233,69.17463000000001,69.09571,69.04603,69.075214,69.03546,69.05286,69.06381,68.99625,68.90048,68.946185,68.99667,68.92091,68.87809999999999,68.864233,68.87224,68.847723,68.91517,68.84031999999999,68.85318600000001,68.865656,68.868304,68.83277000000001,68.89285,68.83841
74.791455,74.726984,74.651416,74.410406,74.35188000000001,74.211664,74.08355,73.82554999999999,73.82475,73.76818,73.65695,73.52437,73.42009,73.34176,73.277856,73.149615,73.02735,72.92837,72.853546,72.67206999999999,72.61694,72.50922,72.45795000000001,72.38343,72.25496000000001,72.127313,72.06712999999999,71.937286,71.920654,71.73273,71.73470499999999,71.576996,71.5932,71.42809,71.39332,71.317084,71.244293,71.187354,71.168695,71.04035,71.015936,70.906366,70.815247,70.71583000000001,70.72653,70.681995,70.639923,70.495856,70.495166,70.39175,70.35652,70.243604,70.239484,70.11159,70.049756,69.991046,69.99697,69.920654,69.76631499999999,69.82088999999999,69.643976,69.56589,69.46736,69.55087999999999,69.467267,69.41546600000001,69.382166,69.37764,69.32897299999999,69.25071,69.28413,69.18285499999999,69.1938,69.145905,69.11469,69.126306,69.100195,69.0823,69.044934,68.986743,69.03773,69.031134,69.03963999999999,68.95995,68.89435999999999,68.82808,68.891785,68.92603,68.852075,68.88556,68.815466,68.87735,68.87102,68.91011,68.80882,68.77645,68.81997,68.83869,68.82554300000001,68.738
74.7967,74.60699,74.611017,74.4379,74.40858,74.09281999999999,74.01428,73.976764,73.804047,73.660144,73.58126999999999,73.504034,73.38249499999999,73.24166,73.19136999999999,73.12657,72.93348,72.922943,72.806146,72.68737,72.60497000000001,72.556055,72.372595,72.290186,72.206476,72.18321999999999,71.99199,71.9615,71.85761,71.72146000000001,71.68763,71.58985,71.52732499999999,71.514246,71.35737,71.286456,71.209424,71.14325,71.13409,71.037634,71.00279,70.89126999999999,70.787695,70.712164,70.60826399999999,70.658795,70.42690999999999,70.39976,70.368506,70.3317,70.28975,70.30686,70.13003499999999,70.11518,70.064075,69.96632,69.98679,69.886865,69.828644,69.75935,69.72618,69.65223,69.496484,69.42963,69.47715,69.38659,69.372534,69.32231,69.28153,69.198364,69.226666,69.235455,69.09841300000001,69.1747,69.12947,69.090643,69.04624,68.96781,69.089056,69.008624,69.018744,68.9967,68.94778,68.83492,68.901917,68.88564,68.81338,68.89903000000001,68.81224999999999,68.86746000000001,68.78963,68.7325,68.79283000000001,68.7505,68.86816999999999,68.71931,68.80162,68.77993000000001,68.74336,68.79942600000001
74.706836,74.58176,74.47819,74.43536,74.301154,74.16138,73.91706500000001,73.92618,73.755566,73.67749599999999,73.619135,73.430835,73.3531,73.26014,73.176324,73.05823000000001,72.95622,72.869366,72.837177,72.680634,72.57674,72.429126,72.41008000000001,72.22284499999999,72.146857,72.080066,71.979846,71.93733999999999,71.74566999999999,71.76862,71.55117,71.57887,71.47756000000001,71.387524,71.312946,71.21283,71.16565,71.06327,70.996906,70.984564,70.9343,70.82034,70.79566700000001,70.707477,70.647534,70.58251299999999,70.47380000000001,70.43583,70.35938999999999,70.353217,70.191986,70.20758,70.142896,70.08885000000001,70.0478,69.935065,69.907086,69.78595,69.7265,69.714636,69.59774,69.41839999999999,69.421954,69.4049,69.404956,69.32699,69.30186,69.31071,69.24836,69.17658,69.178156,69.1825,69.11455,69.09659,69.05854500000001,69.05118,69.05951999999999,69.058264,68.94799,68.97003,68.95693,68.97341,68.84335999999999,68.819904,68.7457,68.799536,68.785596,68.855597,68.84094999999999,68.792816,68.75323,68.70869,68.76219499999999,68.800195,68.677814,68.715454,68.701843,68.721844,68.74418299999999,68.69462999999999
74.73855999999999,74.50245,74.48085999999999,74.393945,74.20707,74.09344999999999,73.923096,73.788617,73.689526,73.605524,73.55869,73.415125,73.39587,73.21554599999999,73.19216,73.066736,73.02958,72.850183,72.691,72.59407300000001,72.474805,72.419214,72.34017300000001,72.205585,72.091595,72.039166,71.92793,71.896155,71.801526,71.62649,71.63174000000001,71.53533999999999,71.404114,71.37236,71.270483,71.29756,71.14574,71.06684,71.026044,70.938324,70.911615,70.736017,70.7054,70.57727,70.58852,70.520056,70.430206,70.44191,70.23483,70.262823,70.20792,70.17589000000001,70.06002,70.059406,69.94668,69.894086,69.86736499999999,69.854553,69.72168,69.66144399999999,69.670905,69.46930499999999,69.46373,69.351917,69.39695,69.29208,69.28196,69.26129,69.205237,69.23985,69.14051500000001,69.09925,69.05643,69.09362999999999,69.057294,69.05448,69.053973,69.039526,68.89358,68.8505,68.97448,68.90693999999999,68.91711000000001,68.761273,68.81893,68.75771999999999,68.80271,68.79577,68.72044,68.68285499999999,68.73972,68.77486,68.667053,68.73313,68.69037499999999,68.67573999999999,68.67486,68.721405,68.62421,68.69411
74.767535,74.51521,74.416864,74.40034,74.162866,74.065845,73.957294,73.79878,73.69629,73.62510999999999,73.5093,73.397675,73.34171,73.21359,73.10711,73.02644699999999,72.87590300000001,72.81354,72.73116999999999,72.64842999999999,72.488556,72.40277,72.36115,72.13493,72.16005,72.07522,71.923334,71.79456,71.712915,71.63898,71.56224,71.43889,71.400037,71.32527,71.293317,71.157404,71.09106399999999,71.07318000000001,70.97824,70.87315,70.92832,70.79242,70.6784,70.60922000000001,70.544525,70.51176000000001,70.37478,70.412616,70.282935,70.219025,70.200525,70.15383,70.13813,69.98585,69.919366,69.921375,69.82517,69.85670999999999,69.661835,69.64309,69.50236,69.513245,69.393494,69.365875,69.33549000000001,69.26304,69.2598,69.211847,69.17138,69.14865,69.11892,69.078345,69.03917,68.9978,69.09519,69.03693,69.00428000000001,68.98010000000001,68.92174,68.765924,68.93728,68.86087,68.81604999999999,68.77838,68.770215,68.689075,68.740015,68.713666,68.7525,68.67314,68.62863999999999,68.68056,68.619543,68.69772,68.65451,68.60851,68.654144,68.57799,68.645483,68.64859
74.640485,74.517175,74.370593,74.261584,74.10433,74.02477400000001,73.91583,73.79224,73.64198,73.54596599999999,73.48612,73.35016,73.18834000000001,73.16703,73.15526,72.91588,72.858057,72.82468,72.618774,72.61943,72.41769000000001,72.34692,72.262946,72.204706,72.101166,71.9802,71.920953,71.75299,71.73130499999999,71.58968,71.522266,71.429224,71.30226,71.327313,71.236035,71.196857,71.03920000000001,70.95984,70.948645,70.8878,70.87351,70.80217,70.595264,70.64075,70.45891,70.50336,70.315826,70.253687,70.23987,70.11633,70.168054,70.15002,70.05073,70.01070999999999,69.85771,69.75317,69.78680399999999,69.71534,69.673553,69.544366,69.47881,69.40601000000001,69.36062,69.35721,69.26705,69.28969,69.21133999999999,69.21686,69.118494,69.13722,69.089496,69.05843,69.02649,69.01317,68.97672,68.935986,69.02999,68.91303,68.87159,68.81197499999999,68.842505,68.795483,68.77126,68.79076,68.68339999999999,68.77805,68.70809,68.70281,68.67569,68.57879,68.561865,68.68839,68.64192,68.659357,68.615216,68.66766,68.68478400000001,68.64779999999999,68.607007,68.604736
74.660034,74.46259,74.31675,74.27047999999999,74.20884,73.944684,73.80476999999999,73.76899,73.62512000000001,73.484534,73.458124,73.390344,73.2864,73.04974999999999,72.940076,72.88723,72.81318999999999,72.72844,72.690155,72.442096,72.44653,72.284155,72.23076,72.1728,72.0532,71.90261000000001,71.848145,71.74980000000001,71.67568,71.56947,71.437836,71.455884,71.33862,71.35146499999999,71.24446,71.16353000000001,71.00293,71.02828,70.85776,70.899945,70.75134,70.65424,70.66380000000001,70.62242,70.49824,70.3924,70.31659499999999,70.20886,70.25217,70.12737,70.09929,70.05519000000001,69.990546,69.93295,69.848114,69.83673999999999,69.727167,69.67766,69.628973,69.586017,69.386365,69.393884,69.33887,69.30828,69.31522,69.27195400000001,69.21661,69.158417,69.12021,69.11061,69.04566,69.041766,68.98814,68.95167000000001,68.889594,68.880347,69.0043,68.86917,68.89607,68.806134,68.84898,68.79783,68.78416999999999,68.72554,68.63611499999999,68.60992999999999,68.595215,68.6425,68.598505,68.52763999999999,68.611237,68.581024,68.57032000000001,68.60211000000001,68.64137600000001,68.582874,68.567285,68.5885,68.60970999999999,68.51594
74.59154,74.479285,74.30805699999999,74.28731,74.19335,73.94214500000001,73.84959,73.715564,73.67445000000001,73.54114,73.44946,73.35458,73.191254,73.11449,72.99909,72.899915,72.848047,72.69143,72.55913000000001,72.38611,72.41585,72.34968,72.17184999999999,72.08013,71.9591,71.87785,71.83101,71.707385,71.67616000000001,71.47143,71.43654000000001,71.35054,71.30332,71.3116,71.16213400000001,71.071326,70.95074,70.99109999999999,70.87546999999999,70.851154,70.790515,70.61902,70.57248,70.50296,70.40071400000001,70.36881,70.33759,70.27511,70.21563,70.155096,70.04710700000001,70.01311,69.9791,69.93356,69.77056999999999,69.686664,69.70254,69.657355,69.629596,69.59675999999999,69.34488999999999,69.428516,69.21894499999999,69.26017,69.23423,69.14215,69.12763,69.114374,69.117444,69.08726,69.03685,69.05042,69.04985400000001,68.94859,68.95536,68.85655,68.876215,68.86179,68.782513,68.81877399999999,68.86935,68.75942,68.658655,68.664905,68.61330000000001,68.6149,68.68017,68.58721299999999,68.64002,68.60893999999999,68.48769,68.57592,68.57484,68.560114,68.59193,68.58782,68.533997,68.533203,68.51477700000001,68.51441700000001
74.559906,74.37677599999999,74.26884,74.18704,74.104724,73.86872600000001,73.75602,73.70631,73.59885,73.512103,73.39333,73.353723,73.23963599999999,73.09806499999999,73.00073,72.80865,72.783673,72.64369500000001,72.566724,72.50793999999999,72.32872,72.311755,72.227997,72.10054,71.94811,71.922614,71.765826,71.75753999999999,71.673987,71.57446,71.404535,71.38146400000001,71.309827,71.225543,71.175916,71.1109,70.94726,70.898267,70.78855999999999,70.71966599999999,70.74126,70.67744,70.49179699999999,70.439746,70.47337,70.338165,70.36176,70.25385,70.19192000000001,70.042444,70.025,70.0168,69.98787,69.7936,69.74837,69.66228,69.632263,69.62709,69.49298999999999,69.40549999999999,69.42929000000001,69.34007,69.29927,69.19827000000001,69.23939,69.14874999999999,69.103876,69.088086,69.088965,69.046436,69.03204,68.96056,68.94334,68.88777999999999,68.86322,68.810474,68.83247,68.80451000000001,68.79204,68.66519,68.63921500000001,68.72758,68.695966,68.61316000000001,68.644305,68.578125,68.61704,68.6177,68.57401999999999,68.56462400000001,68.56369,68.555457,68.47331,68.52586,68.48568,68.49778,68.54998,68.50565,68.48414299999999,68.52324
74.520215,74.39022,74.299786,74.106287,74.04968,73.94787,73.78974600000001,73.65377,73.54838,73.474176,73.41481,73.319434,73.15871,73.13103,72.936444,72.825244,72.835016,72.62669700000001,72.518164,72.488654,72.41567,72.14892,72.19814,72.04963000000001,71.917975,71.826965,71.76377,71.664777,71.63991999999999,71.478937,71.47951,71.34134,71.30116000000001,71.19642300000001,71.19480999999999,71.06218,70.96163299999999,70.84530600000001,70.79256000000001,70.81474,70.667053,70.56378,70.49235999999999,70.44408,70.41382999999999,70.32514599999999,70.23704000000001,70.17501999999999,70.14258,70.01917,69.95381499999999,69.947876,69.90376,69.847437,69.84587,69.728265,69.59855999999999,69.58639,69.47935,69.43426500000001,69.32593,69.34051500000001,69.258594,69.24186999999999,69.1328,69.108484,69.12592,69.06476,68.9955,69.05906,68.99411,68.93999,68.90569500000001,68.80692,68.84719,68.75907600000001,68.822327,68.80044000000001,68.731323,68.752606,68.76171000000001,68.71067500000001,68.66853,68.56497,68.63436,68.54197,68.576843,68.59962,68.55904000000001,68.5106,68.57523,68.464325,68.55015,68.56938,68.452783,68.549976,68.49,68.499524,68.47248499999999,68.49547
74.51488,74.36079,74.22067,74.11383,74.01431,73.85345,73.74265,73.65358,73.524634,73.47663,73.36679699999999,73.23363,73.10664,73.03487,72.992944,72.85105,72.68465,72.56647000000001,72.516266,72.400415,72.35273,72.29359,72.08807399999999,72.00858,71.82998,71.8342,71.746014,71.6778,71.573346,71.479877,71.37324,71.33106000000001,71.28954999999999,71.148334,71.13977700000001,71.04700299999999,70.89455000000001,70.79308999999999,70.72163,70.69557999999999,70.68578,70.565265,70.51889,70.31005,70.311694,70.330994,70.25235,70.196747,70.041565,70.00244,70.024695,69.94886,69.88972,69.80458,69.72114,69.69319,69.61659499999999,69.5749,69.4478,69.36482,69.36605,69.31678500000001,69.28851,69.173517,69.137775,69.114197,69.07554300000001,69.05189,69.02085600000001,68.95534,68.88640000000001,68.896686,68.82273,68.86195000000001,68.75840500000001,68.73101,68.79664,68.80879999999999,68.70701,68.68008,68.77607,68.67060000000001,68.64707,68.586005,68.55463,68.508685,68.573444,68.57048,68.53130999999999,68.48347,68.47731999999999,68.490674,68.534424,68.480005,68.47825,68.524536,68.447394,68.53025,68.41911999999999,68.43633
74.46574000000001,74.27621500000001,74.209406,74.076764,73.96624,73.8596,73.73957,73.55463,73.523596,73.43063,73.31924000000001,73.18668,73.02795,72.8754,72.94653,72.76608,72.72406600000001,72.51498000000001,72.50037999999999,72.409625,72.254755,72.184576,72.06188399999999,72.018134,71.901825,71.84147,71.755707,71.63367,71.60467,71.38379,71.384357,71.32262,71.25527,71.14493,71.06264999999999,70.97256,70.92349,70.746826,70.69913,70.71914000000001,70.566974,70.577386,70.490826,70.42859999999999,70.3497,70.316046,70.16743,70.104913,70.09921,69.96279,69.91977,69.92746,69.79289,69.75313,69.757367,69.676996,69.56636,69.5021,69.475653,69.384375,69.34367999999999,69.20494,69.261914,69.17490000000001,69.11127300000001,69.08693,69.107385,69.07903,68.95998,68.96662599999999,68.94999,68.83033400000001,68.844885,68.73371,68.78877,68.72015400000001,68.80123999999999,68.72283300000001,68.64102,68.65662999999999,68.715326,68.63481399999999,68.49184,68.535065,68.53669,68.479443,68.5044,68.505707,68.538916,68.37951699999999,68.477094,68.51232999999999,68.52394000000001,68.47493,68.411554,68.401294,68.5125,68.48566,68.459796,68.49933
74.4179,74.33464000000001,74.10521,74.039905,73.915216,73.87938,73.724115,73.523083,73.484595,73.39383000000001,73.27557399999999,73.168744,72.986847,72.97754,72.773706,72.778796,72.61447,72.600684,72.42116999999999,72.358276,72.285315,72.23685,72.021796,71.912537,71.77835,71.71718,71.74095,71.58835,71.51705,71.431573,71.358936,71.269867,71.21176,71.177966,71.055994,70.97113,70.812,70.80856,70.73638,70.61321000000001,70.641846,70.43630399999999,70.45211,70.42883,70.3031,70.322766,70.191144,70.164575,69.95579000000001,69.89907,69.9847,69.84563,69.85607,69.7893,69.60778,69.54495,69.526117,69.438806,69.42622,69.36438000000001,69.35665,69.22012,69.14609,69.15412,69.10212,69.1479,69.048254,68.95943600000001,68.92626,68.90322,68.863574,68.80479,68.81787,68.81576,68.732526,68.72482,68.69261,68.72256,68.61163,68.605005,68.60752,68.60735,68.520087,68.46878000000001,68.44822400000001,68.45084,68.4681,68.48097,68.47604,68.41943,68.4047,68.4131,68.39364,68.414484,68.354535,68.38813999999999,68.43481399999999,68.440247,68.320184,68.30315
74.41684599999999,74.312085,74.08564,74.08266599999999,73.94633,73.70323499999999,73.602094,73.56541,73.50034000000001,73.43208,73.24026,73.18168299999999,73.06129,72.95104,72.83618,72.721893,72.64517,72.64175,72.49803,72.301495,72.28287,72.16608,72.07737399999999,71.88474,71.85835,71.73074299999999,71.75192,71.55080000000001,71.46635,71.413916,71.34932,71.22993,71.188165,71.098444,71.00056,70.88678,70.77767,70.77939,70.6624,70.635474,70.575354,70.46468,70.37069,70.28936999999999,70.24428,70.13779,70.14421,70.04762600000001,70.00859,69.83414,69.93433,69.79778999999999,69.805615,69.65608499999999,69.69302400000001,69.562744,69.47380000000001,69.47970000000001,69.41825,69.322186,69.27234,69.195105,69.14332,69.113965,69.06266500000001,69.093835,68.96717,68.989526,68.85804,68.79945699999999,68.89191,68.80112,68.845056,68.75751299999999,68.77117,68.729156,68.74914,68.65395,68.55312,68.59459000000001,68.579364,68.595337,68.531244,68.42417,68.49938,68.44461700000001,68.43972,68.443005,68.48123000000001,68.47179,68.39466,68.31867,68.33484,68.385187,68.42118500000001,68.30747,68.3777,68.32246,68.399304,68.367584
74.384265,74.16788299999999,74.141644,74.04771,73.85667,73.702106,73.5756,73.51905500000001,73.45365000000001,73.31005,73.303595,73.14977,72.980035,72.938007,72.839246,72.72718,72.660944,72.517236,72.48026999999999,72.38514,72.26263,72.12111,71.99507,71.899194,71.81104,71.768555,71.68959,71.49640000000001,71.504626,71.387665,71.36668,71.21973,71.19577000000001,71.07835,70.998535,70.80059,70.85927000000001,70.68671,70.64509000000001,70.56676999999999,70.5174,70.438477,70.33769,70.318555,70.2739,70.21835999999999,70.1759,70.05145999999999,69.93116,69.94085700000001,69.78894,69.80765,69.75643,69.70635999999999,69.57003,69.6085,69.416223,69.47507,69.33531500000001,69.3093,69.21835999999999,69.16087,69.137134,69.090125,69.01768,69.050806,68.99996,68.88072,68.92849,68.939,68.86003,68.82527999999999,68.809186,68.798816,68.671436,68.667975,68.68486,68.63619,68.640845,68.55099,68.53,68.54645400000001,68.43162,68.44651999999999,68.49643999999999,68.41257,68.48232,68.40340599999999,68.420233,68.47109,68.40812,68.33717,68.38003499999999,68.42491,68.35305,68.387585,68.35742,68.35025,68.333856,68.34252000000001
74.37613,74.28798,74.139197,73.966315,73.908624,73.716547,73.63755499999999,73.585815,73.43446,73.385693,73.18764999999999,73.16612,72.99042399999999,72.80406,72.852997,72.70823,72.543915,72.455585,72.43677,72.314777,72.14863,72.09848,72.00127599999999,71.93710300000001,71.76679,71.73807000000001,71.67651,71.53155000000001,71.41091300000001,71.37055000000001,71.2916,71.17308,71.13232,71.04491,70.99897,70.82050000000001,70.76959000000001,70.717816,70.619305,70.59132,70.51171000000001,70.42285000000001,70.32952,70.292615,70.277826,70.15969,70.13912,70.05279,69.97378,69.85101,69.81154000000001,69.7684,69.781244,69.649866,69.582794,69.56759600000001,69.41792000000001,69.428156,69.35497000000001,69.267944,69.28129,69.171,69.12532,69.020276,69.05547,68.99179000000001,68.96477999999999,68.88766000000001,68.86972,68.891626,68.85089,68.79666999999999,68.63855,68.69072,68.60401,68.653864,68.68271999999999,68.643835,68.55888999999999,68.563983,68.5216,68.56365,68.51231,68.478357,68.42929000000001,68.33731,68.400885,68.42699,68.34738999999999,68.319006,68.35952999999999,68.35562,68.38919,68.43129,68.40515,68.31366,68.372485,68.284644,68.30409499999999,68.33787
74.35986299999999,74.15213,74.116736,73.87573,73.82248,73.77143600000001,73.597504,73.513367,73.40988999999999,73.33592999999999,73.234186,73.04255,72.92307,72.89758,72.79077,72.661975,72.53781000000001,72.47503,72.36478,72.14861499999999,72.15589,72.09663,71.91726,71.857385,71.74418299999999,71.699084,71.59325,71.55419,71.436127,71.33633999999999,71.21202,71.15628000000001,71.17763,71.048627,70.93157,70.77669,70.78217,70.639734,70.64842,70.556195,70.51104000000001,70.42649,70.27956,70.283795,70.20576,70.12236,70.116455,69.93007,69.91033,69.86942,69.855237,69.790765,69.682074,69.722266,69.60253,69.469165,69.42842399999999,69.34352,69.410065,69.22859,69.17717,69.13709,69.09832,69.039716,69.03412,69.01944,68.93419,68.90745,68.734204,68.752814,68.79380499999999,68.66137,68.72207,68.71139500000001,68.61391599999999,68.54249,68.63088,68.50922,68.55184299999999,68.56675,68.4804,68.46734599999999,68.41657000000001,68.486865,68.40258,68.35919,68.38028,68.33678599999999,68.35369,68.27503,68.33873,68.27738000000001,68.29310000000001,68.360986,68.357947,68.3784,68.312317,68.362866,68.277075,68.200885
74.22454,74.15057399999999,74.01491999999999,73.942334,73.84144,73.708185,73.55019,73.47411,73.365936,73.33381299999999,73.27270999999999,73.07469499999999,73.036975,72.86734,72.801825,72.586615,72.56867,72.47804599999999,72.3505,72.24413,72.16267,72.04444600000001,71.951025,71.84427,71.67756,71.722546,71.48456,71.57202,71.375134,71.305786,71.19693600000001,71.198193,71.09118,71.02199,70.96823,70.750366,70.71142,70.5827,70.60569000000001,70.6069,70.49117,70.39419000000001,70.3006,70.26257000000001,70.195685,70.09774,70.06393399999999,69.98042000000001,69.81666,69.861707,69.79827,69.72899,69.6455,69.58771,69.4198,69.4413,69.429895,69.39182,69.34479400000001,69.25409499999999,69.22655,69.163586,69.09352,69.028937,68.977765,68.99851,68.96938,68.909265,68.76441,68.819324,68.71173999999999,68.707184,68.62477,68.588416,68.6218,68.61133,68.58953,68.47384600000001,68.47954999999999,68.56674000000001,68.57413299999999,68.46089500000001,68.422876,68.32064,68.34169299999999,68.34913,68.361993,68.38808,68.35398599999999,68.243286,68.236993,68.27533600000001,68.31514,68.36553,68.35531999999999,68.28425999999999,68.35643,68.295245,68.18884,68.265454
74.227783,74.169183,74.028516,73.92321,73.78551999999999,73.70563,73.63784000000001,73.46793,73.44187,73.351685,73.212006,73.054175,72.82648,72.777277,72.78213500000001,72.662836,72.57835,72.524854,72.22352,72.18445,72.07921999999999,72.04496,71.90662999999999,71.82065,71.75842,71.642285,71.611774,71.453644,71.416986,71.33859,71.1428,71.10708,71.097046,71.004694,70.8908,70.808356,70.651373,70.59663,70.52158,70.498517,70.49996300000001,70.36154,70.211816,70.21263400000001,70.218274,70.08083500000001,69.98635,69.947723,69.913306,69.73213,69.74939,69.673865,69.69303,69.64218,69.4928,69.48058999999999,69.37922999999999,69.427594,69.284894,69.21788000000001,69.17931999999999,69.13329999999999,69.020807,68.95515,68.98449000000001,68.88597,68.85553,68.74953000000001,68.705853,68.77104,68.7296,68.64659400000001,68.63171,68.578577,68.61054,68.595795,68.56511,68.478906,68.458057,68.45808,68.51458,68.467914,68.42253,68.36807999999999,68.352997,68.34625,68.3186,68.33553,68.38719499999999,68.28956,68.293036,68.26897,68.2961,68.316113,68.24240999999999,68.34964599999999,68.29736,68.24619,68.344476,68.29518
74.29341,74.113715,74.02098,73.94903000000001,73.812646,73.737225,73.55631,73.514594,73.38075599999999,73.311774,73.150275,73.00683599999999,72.891754,72.86123,72.717725,72.641516,72.52536599999999,72.41042,72.3424,72.233185,72.10839,72.029755,71.948346,71.748694,71.68606,71.66683,71.517645,71.4182,71.37482,71.24127999999999,71.14369,71.09187,71.09207,70.92584000000001,70.85734,70.822363,70.80306,70.59355000000001,70.566907,70.49678,70.42016,70.32985,70.26771,70.20769,70.16290000000001,70.06585700000001,69.93890999999999,69.98109,69.91484,69.82725,69.716473,69.743774,69.5941,69.54299,69.49260000000001,69.51448,69.42175,69.35602,69.257416,69.23539,69.163324,69.180786,69.04168,69.02218,68.95919,68.947253,68.885223,68.78298,68.77979,68.724347,68.78529,68.71862999999999,68.65916999999999,68.58721299999999,68.54836,68.50904,68.54907,68.55876500000001,68.37907,68.484595,68.46294,68.39695,68.39364,68.30796000000001,68.22695300000001,68.35682399999999,68.331616,68.24240999999999,68.28501,68.287775,68.23396,68.27633,68.26871,68.332416,68.1279,68.20915,68.271326,68.15856,68.26485,68.27053
74.20123,74.05116000000001,73.97107,73.844025,73.73483,73.63998000000001,73.594934,73.437213,73.35220000000001,73.25022,73.09956,73.03945300000001,72.94460000000001,72.748114,72.699445,72.56852,72.53665,72.43124,72.277826,72.189795,72.12435,72.026556,71.88048,71.810297,71.66438000000001,71.51726,71.52686,71.41716,71.3455,71.29248,71.09189,71.106934,71.13599,70.94868,70.85042,70.748987,70.66915,70.60978,70.510315,70.49399,70.37838,70.357794,70.230273,70.1703,70.073065,70.052875,69.967896,69.909296,69.79753,69.712384,69.71495,69.683075,69.64706,69.50910999999999,69.4547,69.39645,69.31021,69.295,69.2732,69.20709000000001,69.14243,69.08055399999999,68.999207,68.99075,68.88034,68.92399,68.782117,68.81038,68.76736,68.74185,68.633636,68.68638,68.61069,68.58263500000001,68.53981300000001,68.47067,68.50077999999999,68.44049,68.455566,68.434766,68.426556,68.38732,68.42003,68.316156,68.277765,68.23735400000001,68.334705,68.32535,68.21874,68.265674,68.156384,68.2428,68.258167,68.235547,68.33287,68.286316,68.19062,68.224335,68.13807399999999,68.196173
74.22209000000001,74.01232,73.95109,73.80706,73.77995,73.66136,73.51894,73.41613,73.25951,73.25497,73.0368,72.98245,72.81438,72.77055,72.704004,72.58498499999999,72.450714,72.40634,72.235004,72.136816,72.074304,71.91341,71.87704,71.75542,71.617474,71.58968,71.5632,71.41988,71.34710700000001,71.2567,71.15612,71.04037,71.06612,70.96499,70.83911,70.753284,70.703937,70.60015,70.47956500000001,70.44342,70.42405,70.36089,70.239465,70.136285,70.07967,70.01012,69.994556,69.91024999999999,69.75315,69.67989,69.70721,69.61424600000001,69.64968999999999,69.54612399999999,69.45821,69.44662,69.36617,69.345844,69.18348,69.18159,69.14375,69.01863,69.00212400000001,68.891156,68.98044999999999,68.91276,68.75534999999999,68.82654,68.712463,68.69374400000001,68.70617999999999,68.66011999999999,68.53198,68.553235,68.544214,68.459216,68.45155,68.48933,68.33153,68.40045,68.46687,68.42368,68.337463,68.34634,68.24888999999999,68.220197,68.25807,68.240955,68.210144,68.21408,68.28478,68.21947,68.25267,68.25796,68.282074,68.199194,68.099677,68.205426,68.11665,68.20657
74.139374,74.04056399999999,73.97954,73.85318,73.76058,73.65632000000001,73.536505,73.42116999999999,73.24159,73.21537,73.092786,73.004614,72.83807399999999,72.73740000000001,72.67958999999999,72.602203,72.507764,72.371545,72.18352,72.149634,72.09891400000001,71.95698999999999,71.812634,71.675226,71.67246,71.5417,71.469995,71.37659,71.324194,71.227136,71.15122,71.11309,71.054706,70.89719,70.84707,70.71878699999999,70.687317,70.49348,70.518646,70.503076,70.302124,70.35502,70.157733,70.117926,70.16607,70.07437,69.943915,69.82193600000001,69.77804,69.76351,69.664484,69.63854,69.647534,69.47413,69.448145,69.35506000000001,69.30494,69.33700999999999,69.211365,69.163727,69.125494,69.067554,68.9264,68.919244,68.950775,68.92212500000001,68.79585,68.77543,68.7244,68.60952999999999,68.64318,68.58284,68.60454,68.512506,68.52404,68.43570600000001,68.473206,68.422217,68.37657,68.32845999999999,68.38921,68.36244500000001,68.29119,68.30883,68.27672,68.288635,68.30718399999999,68.26907,68.22009,68.21734599999999,68.22299000000001,68.23557,68.210474,68.19692,68.213806,68.25023999999999,68.18798000000001,68.21311,68.26232,68.21362
74.22157,74.134717,73.93366,73.85172,73.67443,73.621674,73.503076,73.43191,73.323267,73.23924,73.09319500000001,72.93366,72.896497,72.70700000000001,72.666345,72.58993000000001,72.45117,72.346313,72.16797,72.16276,71.96518,71.88594,71.93857,71.754913,71.624023,71.5514,71.50281,71.43055000000001,71.34806499999999,71.194727,71.01151999999999,71.076996,70.98423,70.924866,70.791077,70.67777,70.604285,70.554486,70.531195,70.476544,70.2947,70.27245500000001,70.22838,70.07948999999999,70.12309,69.976416,69.91214,69.876447,69.76133,69.73169,69.70186,69.65181,69.57804999999999,69.472955,69.34071,69.38507,69.31088,69.33055,69.193335,69.143866,69.12953,69.00019499999999,68.90761,68.89184,68.87590300000001,68.83636,68.796967,68.710504,68.649023,68.59073,68.61570400000001,68.558026,68.5685,68.55096999999999,68.49958000000001,68.443274,68.47724600000001,68.49687,68.38826,68.29686000000001,68.320044,68.439667,68.313306,68.24818,68.28105000000001,68.25724,68.286066,68.187585,68.18691,68.175574,68.24995,68.16661400000001,68.24600000000001,68.217413,68.177454,68.23596,68.17936,68.1935,68.25651,68.19337
74.24901,74.10468,73.97704999999999,73.77881,73.71234,73.55033,73.44572,73.40626999999999,73.31037599999999,73.2006,73.02196699999999,72.93507,72.80125000000001,72.65691000000001,72.688574,72.48106,72.445764,72.40214999999999,72.26086000000001,72.07273599999999,71.969116,71.96311,71.80484,71.665515,71.724963,71.54348999999999,71.47403,71.359406,71.271045,71.10101,71.05552,70.997095,70.94433000000001,70.852136,70.822034,70.64070000000001,70.62644,70.550995,70.459406,70.44626,70.338995,70.247144,70.225543,70.11634000000001,70.07907,69.99432399999999,69.88351,69.8297,69.7949,69.65982,69.692316,69.74543,69.5835,69.45952,69.45071,69.39351,69.28625500000001,69.264557,69.207043,69.15585300000001,69.1226,69.049225,68.95851400000001,68.9343,68.896783,68.8398,68.687683,68.73726,68.65382,68.631226,68.68029,68.54556,68.53699,68.4683,68.488293,68.49028,68.45547,68.37577,68.415295,68.351697,68.25682,68.39131,68.29086,68.23467000000001,68.19055,68.25820999999999,68.22672,68.187146,68.162445,68.04129,68.144147,65.565295,65.51096,65.48704000000001,65.564795,65.297284,65.614496,65.526434,65.377,65.564386
74.16964,74.0586,73.953656,73.76845,73.762494,73.5513,73.44545000000001,73.35855000000001,73.261743,73.14144999999999,73.087946,72.97646999999999,72.78996,72.704736,72.57804999999999,72.450287,72.410254,72.34175400000001,72.220795,72.092523,72.070825,71.9333,71.819446,71.67993,71.61280000000001,71.57396,71.45529,71.384,71.27363,71.15459,71.11785,70.98711499999999,70.93876,70.851184,70.80666,70.67034,70.55330000000001,70.56080299999999,70.50581,70.415356,70.34989,70.158545,70.21308,70.14098,70.028735,69.98115,69.90434,69.851086,69.850885,69.646405,69.61422,69.62886999999999,69.52996,69.44734,69.45659,69.317426,69.289514,69.266815,69.18617,69.13923,69.0539,69.04076,68.92537999999999,68.88271499999999,68.83151000000001,68.812384,68.79326999999999,68.74154,68.70998,68.599835,68.64513500000001,68.587,68.60941,68.509766,68.494073,68.46829,68.44744,68.384186,68.39414000000001,68.32048,68.406836,68.263855,68.220264,68.22637999999999,68.18712000000001,68.1815,68.2461,68.162836,68.21032,68.13503,68.186487,65.54670999999999,65.74554,65.703314,65.54129,65.24167,65.55154,65.77622,65.51854,65.26325
74.23608,74.151306,73.816754,73.78423000000001,73.75825,73.56716300000001,73.463806,73.35970499999999,73.24876,73.17873,73.081226,72.927094,72.84121,72.752094,72.565247,72.47504,72.432446,72.31915000000001,72.164606,72.05674400000001,71.95553,71.892676,71.776886,71.65688,71.62322400000001,71.5111,71.42841,71.362195,71.24368,71.12149,71.111346,70.98249,70.97108,70.88934,70.86465,70.66503,70.61874,70.5676,70.47336,70.30749,70.3321,70.22252,70.07939999999999,70.088837,69.97264,69.91333,69.91924,69.8434,69.851636,69.668854,69.709216,69.595984,69.54582500000001,69.46951,69.36023,69.319244,69.244916,69.248773,69.20493,69.144574,69.04547,68.96142,68.880994,68.820807,68.85005,68.758606,68.692914,68.774603,68.68295,68.66378,68.65551,68.571405,68.469965,68.535284,68.50645,68.415704,68.46163299999999,68.39961,68.34323,68.35318600000001,68.34123,68.30498,68.27374999999999,68.28644399999999,68.22065,68.24202,68.26283,68.13968,68.16837000000001,68.08324,68.18075999999999,65.48561,65.439014,65.430774,65.524115,65.46297,65.52167,65.51408699999999,65.51671999999999,65.63468
74.061285,73.94969499999999,73.89964,73.77815000000001,73.67256,73.58831,73.49477,73.3499,73.27853,73.04923,73.014343,72.938275,72.815967,72.781384,72.614526,72.50063,72.47459,72.318066,72.1346,72.09541,71.99584999999999,71.86127300000001,71.84006000000001,71.706384,71.593695,71.553436,71.42886,71.3544,71.201245,71.15779,71.10036,70.97537,70.92758,70.880865,70.785614,70.67259,70.61877,70.49869,70.411957,70.34747300000001,70.280646,70.20917399999999,70.15883,70.065094,69.9932,69.95814,69.821173,69.867334,69.713806,69.65296,69.63248999999999,69.576166,69.54571,69.369293,69.35940000000001,69.36555,69.26941000000001,69.24185,69.16445,69.074927,69.03117,68.932806,68.87966,68.890045,68.880133,68.803955,68.75739,68.68563,68.62155,68.647424,68.65589,68.513513,68.47119,68.43147,68.47104,68.424536,68.36106,68.321124,68.391724,68.22117,68.30932,68.23003,68.258154,68.181757,68.14193,68.19378,68.16361,68.18055000000001,68.09342000000001,68.05332,68.154565,65.433746,65.55932,65.58265,65.562134,65.511694,65.54225,65.53249,65.47316,65.47906
74.17096599999999,73.877,73.86229,73.83534499999999,73.66975,73.55749499999999,73.484894,73.32987,73.19665499999999,73.105804,73.04765599999999,72.95066,72.81822,72.710004,72.61076,72.44408,72.37316,72.31365,72.22114,72.15638,71.998254,71.90429,71.756055,71.65279000000001,71.580597,71.54035999999999,71.45667999999999,71.36280000000001,71.30058,71.15045,71.03889000000001,70.94569,70.93737,70.84452,70.779285,70.70685,70.53641999999999,70.51241,70.53168,70.37078,70.283746,70.24235999999999,70.061993,70.07975,69.96786499999999,69.90585999999999,69.92812,69.77979,69.75059,69.65258,69.641895,69.600806,69.5337,69.40044,69.32167,69.355554,69.23899,69.25516400000001,69.193243,69.125433,69.054504,68.95628,68.871216,68.848956,68.821136,68.74114,68.72146000000001,68.61373,68.648706,68.569885,68.59906600000001,68.608453,68.51748,68.42012,68.36280500000001,68.347906,68.37554,68.36307000000001,68.372375,68.265094,68.297284,68.252466,68.197394,68.22339,68.21396999999999,68.1379,68.161316,68.164404,68.085846,68.070386,68.17908,65.600836,65.35997,65.35691,65.40831,65.545026,65.521075,65.66027,65.37279,65.637604
74.083167,73.93718,73.84966,73.77317000000001,73.68068,73.552277,73.451404,73.33905,73.295087,73.175287,73.00429,72.84646599999999,72.822327,72.67827,72.63622000000001,72.45213,72.40662999999999,72.347784,72.214276,72.116113,71.96446499999999,71.90909,71.79099,71.655774,71.67227,71.530475,71.42828,71.357336,71.20555,71.099524,71.067084,70.908813,70.93796999999999,70.84524,70.694653,70.61042499999999,70.57163,70.49472,70.498267,70.34877,70.27605,70.146356,70.15692,70.082825,69.94847,69.91748,69.84155,69.748285,69.71146999999999,69.581323,69.53232,69.58773,69.45127,69.39114,69.344574,69.34985,69.243744,69.204193,69.178235,69.10557,69.053406,68.985394,68.84943,68.837,68.77606,68.75867,68.725073,68.64031,68.63660999999999,68.550256,68.56241,68.58993000000001,68.47079,68.41606,68.427057,68.373474,68.40927,68.40576999999999,68.325964,68.30465000000001,68.24152000000001,68.25676999999999,68.24366,68.170135,68.18079,68.13207,68.14459000000001,68.167944,68.099475,68.030664,68.15906,65.46785,65.45438,65.47524,65.52726,65.406116,65.351306,65.43581,65.63444,65.53166
74.04017999999999,74.01586,73.87853,73.800323,73.6626,73.55981399999999,73.42888,73.335913,73.19373,73.02856399999999,73.01075399999999,72.83081,72.77734000000001,72.63925,72.60560000000001,72.518726,72.34322,72.24995,72.12675,72.03559,71.99983,71.89736,71.76608999999999,71.74077,71.52181,71.491394,71.41878,71.322644,71.236017,71.088464,71.03443999999999,70.94438,70.86064999999999,70.78587,70.73306,70.65992,70.52446,70.44167,70.422614,70.36292,70.29799,70.21941000000001,70.14032,70.01328,69.967065,69.93352999999999,69.85832500000001,69.750006,69.726807,69.57825,69.60886,69.568524,69.53193999999999,69.36063,69.43682,69.31808,69.27519,69.19129000000001,69.16432,69.05151,69.00753,68.92521400000001,68.89563000000001,68.71289,68.799493,68.78693,68.71482499999999,68.58381299999999,68.667584,68.540955,68.59693999999999,68.52961400000001,68.45946,68.441895,68.36049,68.33171999999999,68.38412,68.319116,68.26333,68.283514,68.244165,68.20932,68.245026,68.13934,68.23564,68.12292,68.144244,68.114044,68.17990999999999,68.13538,68.113947,65.42931999999999,65.36431,65.605035,65.45966,65.38689600000001,65.47155000000001,65.37958,65.41720000000001,65.34918
74.00778,73.96758,73.87805,73.69319,73.636676,73.50621,73.43977,73.27817,73.1831,73.00395,73.01944999999999,72.896826,72.73141000000001,72.668774,72.57124,72.49367,72.39647,72.26840999999999,72.175,72.04191,72.0038,71.907025,71.766907,71.691724,71.621326,71.47524,71.39637,71.361993,71.299023,71.024243,71.0418,70.90157,70.918665,70.83466,70.694006,70.64898,70.45304999999999,70.468933,70.46224,70.276434,70.30792,70.180774,70.14179,70.072375,69.96101999999999,69.918207,69.866095,69.77919,69.739264,69.643225,69.60649,69.587006,69.46812,69.44428,69.29413500000001,69.27622,69.21794,69.205524,69.137946,69.08559,68.974115,68.9067,68.872107,68.805365,68.82325399999999,68.8647,68.64173,68.67083,68.58415,68.5172,68.564404,68.48218,68.40489,68.38904,68.43789699999999,68.38379499999999,68.441376,68.367303,68.26692,68.301086,68.290063,68.269147,68.22799,68.16693000000001,68.12586999999999,68.16861,68.148584,68.12071499999999,68.16321,68.07506,68.14518000000001,65.561255,65.289514,65.606744,65.48432,65.51717,65.60922000000001,65.53963,65.64607,65.535126
74.07543,73.965594,73.9466,73.66218,73.62289,73.47378,73.41082,73.303687,73.26013,73.06051599999999,73.00324,72.96607,72.785815,72.69836000000001,72.53319,72.48352700000001,72.23979,72.35562,72.214355,72.107007,71.94503,71.90835,71.71698,71.65596000000001,71.576306,71.46377,71.40081,71.359644,71.23411,71.05906999999999,71.04768,70.96354,70.88032,70.749054,70.685767,70.59211,70.52699,70.52023299999999,70.40098,70.35974,70.31411,70.220795,70.06201,70.06257000000001,69.97806399999999,69.90099000000001,69.84841300000001,69.74542,69.625116,69.71737,69.552997,69.552014,69.49584999999999,69.39159,69.3659,69.35291,69.29614000000001,69.211774,69.16683,69.07033,68.985187,68.90948499999999,68.78307,68.88623,68.84407300000001,68.749725,68.6932,68.64641,68.595905,68.58513,68.635785,68.50517599999999,68.450494,68.451807,68.34478,68.30336,68.40799,68.44216300000001,68.34574,68.260645,68.240216,68.23522,68.205383,68.19865999999999,68.14799000000001,68.13491,68.13726,68.10837000000001,68.000366,68.02781,68.15874,65.534784,65.485144,65.624854,65.49068600000001,65.54948,65.490656,65.5496,65.53267,65.54912
