768.06323,765.7036,764.6912,762.91345,762.61847,760.33594,759.85455,758.18884,757.48114,755.9965,755.4047,754.1971,752.4121,751.9058,751.1567,750.4874,748.9614,747.89465,660.0147705078125,656.5188598632812,653.2105102539062,649.9376220703125,647.2847900390625,647.4375,645.6773071289062,643.3006591796875,642.7937622070312,642.0978393554688,640.9185180664062,640.11669921875,638.9774169921875,638.9280395507812,640.2685546875,642.3523559570312,642.57763671875,642.22119140625,640.7901611328125,640.8043823242188,639.4794311523438,638.4650268554688,637.824462890625,637.2874755859375,637.4323120117188,637.2051391601562,637.8292846679688,639.8788452148438,643.6644897460938,646.3530883789062,647.0587768554688,648.1709594726562,649.15771484375,651.1328735351562,652.2547607421875,655.7118530273438,660.1723022460938,665.531494140625,718.3969,716.9212600000001,717.73376,716.092,716.2216,714.7754499999999,714.3866,714.2972399999999,712.83734,713.2938,712.7755,712.1164999999999,712.2830999999999,711.7865,711.5921000000001,711.60474,711.15045,710.1703499999999,710.0681,710.0176,709.93024,709.67224,709.22955,709.4476,709.0434600000001,709.238,708.82697,708.7481,708.8156000000001,707.8112999999998,707.8403000000001,707.9445,707.4982,707.49976,707.61053,707.7342,707.03204,707.4242000000002,707.27783,707.751,706.9075,706.9998,707.2781,707.1758
765.7389,765.3477,763.3727,762.6752,761.8759,760.1697,759.4705,757.94104,756.1623,755.0739,753.97504,752.78094,751.84686,751.0741,750.59357,748.45795,747.3784,658.3223266601562,656.2882690429688,653.8866577148438,650.6945190429688,647.876220703125,646.4002685546875,644.6786499023438,643.621337890625,641.64306640625,640.5014038085938,640.05908203125,640.4093017578125,639.7761840820312,637.1072387695312,637.6989135742188,640.4640502929688,640.703369140625,639.764892578125,639.7601928710938,638.6214599609375,639.3397216796875,638.8278198242188,637.9973754882812,638.2807006835938,637.2966918945312,637.6587524414062,637.0439453125,637.3629150390625,638.57861328125,639.9515380859375,640.2839965820312,643.6534423828125,645.2720947265625,646.64697265625,649.4818115234375,651.8670654296875,654.5532836914062,660.557861328125,664.8145141601562,717.5562,717.1829,716.50616,715.3161,714.6065999999998,713.5213999999999,713.5081,713.0643299999999,712.5063,711.6089999999999,711.84937,712.1290999999999,710.7382,710.58875,710.8213,710.43335,710.6415,709.7619,709.7062,709.4755,709.174,708.9595299999999,708.5654999999999,707.26154,708.52216,708.47125,707.8082,707.6538,707.40295,706.96344,707.8769,707.30615,706.81964,706.8668,706.2836,705.5249000000001,705.8140000000001,706.7929000000001,706.468,706.7648299999998,705.8497,706.009,706.5862400000001,706.8616
766.16956,764.30884,763.7289,761.9386,760.6137,759.17773,757.6957,757.3215300000002,755.4179999999999,754.9054,752.8553999999999,753.17224,751.45325,750.06494,749.70215,748.41046,746.9707600000002,659.1626586914062,654.7086181640625,650.8064575195312,647.9564208984375,646.0309448242188,642.7192993164062,640.5594482421875,637.6576538085938,637.981201171875,637.4058227539062,636.6022338867188,636.9669799804688,637.7881469726562,636.869384765625,636.90185546875,636.9841918945312,636.9008178710938,636.5292358398438,636.4749755859375,635.7977905273438,635.68212890625,636.6038818359375,636.3380126953125,636.613037109375,637.1161499023438,636.56689453125,637.7567138671875,637.8927612304688,639.24755859375,639.8531494140625,641.4967651367188,642.4363403320312,645.0462646484375,646.616455078125,648.9628295898438,651.40234375,655.741455078125,657.9412231445312,663.4293212890625,716.6589999999999,716.0889,715.46216,714.9459,713.9122299999999,713.4332,712.4267599999998,712.24896,712.2475,711.7481,710.7698,711.1485600000001,710.34265,710.2093,709.9485500000001,709.8048,709.9555,708.99115,709.0533,708.7038,709.3742,708.8686,708.1066,707.1368,707.6089,707.53015,707.07715,707.05133,706.4383,706.54266,706.386,705.8104000000001,706.1262999999999,705.64667,706.30115,706.0332,705.9738,705.53406,705.4544,705.33856,705.9249,705.13214,705.6779,706.0420999999999
765.1901,763.65247,762.2832,760.6795,759.7816,757.7977,757.5503000000001,756.1492,754.4551,753.5981400000001,753.1864,751.8451,750.8847000000001,748.7795,748.0591400000001,747.5808,659.7332763671875,655.1887817382812,649.7350463867188,646.4351806640625,644.3878784179688,640.7450561523438,638.0248413085938,635.9749145507812,636.2952880859375,634.5031127929688,634.3911743164062,633.3353881835938,633.105224609375,634.4029541015625,635.2012939453125,634.4605102539062,634.2039184570312,632.9555053710938,633.2254028320312,634.466552734375,633.9794921875,633.6848754882812,634.4061889648438,634.1528930664062,634.5462646484375,634.8739013671875,636.4598999023438,636.0328979492188,636.7573852539062,637.8246459960938,639.1809692382812,640.2053833007812,642.5556030273438,644.489013671875,645.821044921875,648.903076171875,651.0769653320312,654.9454956054688,658.0833129882812,662.4385375976562,715.5931,715.5171,715.28503,714.44525,714.32043,712.97894,711.9299,711.8249000000001,710.57477,711.1032,710.4102,710.3037,709.9433,709.8305,709.518,709.2667,708.2791,708.08295,708.5220300000001,708.7666,707.9577,708.72473,707.3344,706.1366599999999,707.0196999999998,707.06683,705.4313,706.0123999999998,705.20123,705.1716999999999,704.8608,705.47034,705.5045,705.2071,705.59174,704.60095,704.4727,705.019,704.5065999999999,704.9163,705.37036,705.2052000000001,704.83167,704.6716000000001
764.8308,762.9258400000001,761.8601,760.3321,759.557,757.5424,756.4768000000001,755.4525,754.0448000000001,753.39294,752.1916,751.6576,749.7742,748.8237000000001,748.352,650.1073608398438,654.5015258789062,649.4976196289062,646.2330932617188,643.9209594726562,640.3583984375,638.4362182617188,635.9360961914062,633.5394287109375,633.0718994140625,632.7649536132812,630.1386108398438,630.8181762695312,631.342529296875,631.8634033203125,631.676513671875,631.8291625976562,630.4364624023438,630.66015625,631.088134765625,630.656005859375,631.403076171875,630.7115478515625,631.9425048828125,632.623046875,633.0864868164062,632.7207641601562,632.433837890625,633.7506103515625,636.1528930664062,636.4252319335938,637.3075561523438,639.6157836914062,640.1525268554688,643.5870971679688,646.6351928710938,648.5955200195312,651.4852294921875,653.6864013671875,657.7395629882812,663.023193359375,715.44196,715.0609,714.62286,713.7266,712.4612,712.21857,710.68353,711.4263,710.28094,710.3984,709.75134,710.00385,709.4124,707.74884,709.0677,708.1766,707.4474499999999,706.5952,707.32935,707.0038,706.9033,707.19196,706.2354,705.6991600000001,706.4102,706.0152,705.81573,705.58215,704.77106,704.1948,704.84937,705.3647,704.4283,704.1624,703.89374,703.6828,704.1981,704.42316,704.50775,704.3300999999999,704.7728,704.4386,704.09094,703.9659
763.5686,762.90186,760.44183,759.83923,758.2228,757.2909,755.90216,754.6842000000001,753.9288999999999,752.2974,751.56464,749.87036,749.2350999999999,747.38336,650.1596069335938,656.678466796875,651.6182861328125,647.3709106445312,642.5518798828125,641.0802001953125,636.80322265625,634.314453125,632.5236206054688,631.4811401367188,630.2738647460938,629.877197265625,629.7591552734375,628.8681640625,628.9358520507812,629.0071411132812,629.1234130859375,627.9822998046875,628.7581176757812,629.6478271484375,629.4515380859375,629.046630859375,627.315673828125,628.40234375,629.048095703125,629.058349609375,630.0531616210938,629.8807983398438,630.8035278320312,631.6654663085938,634.084716796875,633.456298828125,635.6774291992188,638.5397338867188,638.0116577148438,640.45654296875,643.8558349609375,647.5608520507812,649.0958251953125,650.9015502929688,655.4049072265625,657.880615234375,664.2830810546875,714.56415,714.6826999999998,713.2613000000001,711.50604,712.1473000000001,710.87067,710.4975,709.5124,709.7558000000001,708.82806,708.95917,708.6733000000002,708.54376,707.58105,708.2703000000001,706.9839,706.4375,705.9389999999999,706.6016,705.4966,706.8416,705.17566,705.9364600000001,704.8726999999999,705.69275,705.46826,704.31006,703.7341000000001,704.01263,703.87384,704.1235,703.998,704.19867,703.3476,703.888,703.9007000000001,703.2563,703.97565,704.20715,703.45197,703.8143,704.1742,703.1316000000002
763.0201999999999,761.103,759.87274,758.66876,758.204,756.61456,755.12354,754.2550700000002,752.9834600000002,751.91595,751.6105300000002,749.60724,748.9669000000001,747.10284,656.0279541015625,652.510498046875,648.4827270507812,643.7548217773438,640.15087890625,636.1795043945312,633.6721801757812,630.83447265625,630.4819946289062,629.4010009765625,628.4602661132812,628.021728515625,627.4867553710938,626.5531005859375,626.3643798828125,625.957763671875,626.7189331054688,626.1056518554688,625.28271484375,625.2101440429688,625.3531494140625,627.6016235351562,625.4617919921875,627.0831909179688,625.7315063476562,625.1411743164062,626.5533447265625,627.3502807617188,627.5745239257812,629.7313232421875,631.294189453125,632.1712036132812,634.4924926757812,634.3101806640625,636.4984741210938,639.515869140625,641.1104736328125,642.9072265625,646.03759765625,649.4441528320312,651.3102416992188,655.0740356445312,658.5643920898438,666.1946411132812,712.3904,712.35913,711.23505,710.7912999999999,710.3634,710.61273,708.6928,708.6557,709.07404,708.297,707.6008,706.4649,707.309,706.8551,707.0328,705.2389,704.95996,704.9211,705.18274,705.6712,705.4646,703.93805,703.7855,704.67523,704.5714,703.2890599999998,703.5519999999999,702.9835,703.9468999999999,703.85767,703.2511999999999,702.7071,703.0602,701.8055000000002,702.1756,702.97766,702.68164,701.8296499999999,702.9938400000001,702.9463,702.0198,702.5703
762.3785399999999,761.01764,758.9049,757.86615,757.5964,756.5630999999998,754.31494,753.2563500000001,752.5743,751.4094,750.5179,749.01416,747.8923299999999,652.5283203125,649.5137939453125,647.3117065429688,644.4301147460938,640.93408203125,637.5962524414062,634.7711791992188,632.0371704101562,630.4671020507812,628.9761962890625,628.2042236328125,626.9517822265625,626.388671875,624.7054443359375,622.6771240234375,620.5220947265625,623.88525390625,622.619140625,623.3875122070312,622.6687622070312,623.233642578125,622.7252197265625,622.3623657226562,624.2717895507812,623.0401611328125,622.7357788085938,624.2882690429688,624.6701049804688,625.609375,626.6328125,628.105224609375,629.9156494140625,630.0853271484375,631.1038208007812,632.257080078125,634.4425659179688,636.7572631835938,638.3201904296875,641.5877075195312,644.4422607421875,646.4161987304688,649.5881958007812,652.64013671875,657.6644897460938,663.6678466796875,666.1470947265625,711.7532,711.1534,710.4039,710.3752,709.0391999999999,709.841,709.1616999999999,708.0899999999999,707.6035,707.6829,706.5869,706.7796,705.9286,706.33545,705.2154,705.2239,704.89966,704.0571,704.7623999999998,704.2474,703.11005,704.2347,704.63635,703.86176,703.0956000000001,702.4012500000001,702.66205,702.8886,702.67786,702.28876,702.169,702.1206,701.9365,701.6203,702.4267,703.3778,702.8267,702.13464,701.65436,701.9522,702.237
760.7054,759.33405,758.7729,757.55334,756.1906999999999,755.4417,753.8739,752.51086,752.3652,751.433,749.8342,748.76605,652.3963623046875,649.64794921875,646.5286254882812,645.1787109375,642.25341796875,640.225830078125,635.56201171875,631.2970581054688,631.9747924804688,629.2554931640625,628.741455078125,626.9380493164062,627.2210693359375,625.580078125,623.5803833007812,622.3475952148438,620.8665161132812,621.409912109375,621.1624755859375,620.75244140625,620.2890014648438,617.2993774414062,620.0423583984375,621.1959838867188,618.5418701171875,618.9051513671875,619.8661499023438,622.72119140625,619.3095092773438,622.47021484375,623.2542724609375,626.1505737304688,626.7849731445312,628.1053466796875,629.3714599609375,630.5543212890625,631.4913330078125,633.3271484375,636.300048828125,637.4130859375,639.5624389648438,643.1376953125,647.01171875,648.948486328125,653.87451171875,658.9730834960938,662.4078369140625,666.3695068359375,710.4812,710.4165,709.30756,708.6958,707.84,709.2049,707.3231,706.70966,706.1556,705.8556999999998,706.4486999999999,705.4067399999999,705.0448,703.9575,703.60815,703.7652,703.95105,704.1578400000001,703.5238000000002,702.7753,704.17816,703.2256,702.54865,702.3726,701.57465,702.1892,701.739,702.3112000000001,701.6988000000001,701.1451,702.1335999999999,701.2714,700.6921,702.06323,701.0594000000001,701.3092,701.6747399999999,702.0372,700.9652,700.81006
761.1474,758.663,757.73566,756.6477,756.0267,753.6983,753.2977,752.3044,751.0953,749.518,748.7951,747.7078,647.9349975585938,648.6521606445312,645.2872924804688,641.9569091796875,640.5101928710938,636.2230224609375,633.6942138671875,631.1854858398438,629.4096069335938,626.9998779296875,622.37060546875,623.9882202148438,624.64794921875,622.3042602539062,618.4549560546875,620.5878295898438,619.218017578125,619.5784301757812,619.904052734375,619.3278198242188,617.427490234375,617.86572265625,617.3397216796875,616.91943359375,618.4589233398438,617.1490478515625,618.503173828125,618.7141723632812,618.2286987304688,619.9247436523438,621.6317138671875,622.3319091796875,622.6032104492188,624.8374633789062,626.7673950195312,630.4281616210938,629.8167114257812,631.5899658203125,632.6586303710938,635.2322387695312,637.8035888671875,639.740966796875,642.6011352539062,646.74658203125,649.9523315429688,654.5779418945312,659.205322265625,662.064208984375,710.1529,709.51044,707.8461,707.65753,707.57404,707.6597000000002,706.32806,706.2573,705.80115,704.6200999999999,705.09735,705.1734,704.5673,704.0357,703.5024,703.20795,703.9348,704.0783999999999,703.1453999999999,702.0369,703.1959,702.2128,702.092,702.13104,701.748,701.1599,701.47943,701.8046000000002,701.3298,700.81915,701.0935,700.8878,700.5499,701.4964,700.93085,700.6521,701.23694,700.75684,699.9775,700.8932500000001
759.7148400000001,758.4357,756.90906,756.50714,755.66833,753.9633000000001,752.5192,751.7298,750.15796,749.7592,747.9823999999999,653.0046997070312,651.2454223632812,646.759521484375,643.8829956054688,641.9249877929688,638.1165161132812,639.16650390625,633.8356323242188,630.0856323242188,628.2393188476562,625.8659057617188,625.6279296875,622.4116821289062,624.2418823242188,622.9702758789062,620.1146240234375,619.5823974609375,617.9429931640625,616.7191772460938,616.9371948242188,615.5738525390625,617.1427001953125,615.4033203125,613.3563232421875,615.0098266601562,615.1453857421875,615.6400756835938,616.1302490234375,617.2166748046875,617.6717529296875,617.0693359375,617.7076416015625,620.5202026367188,621.54345703125,622.6293334960938,623.9571533203125,625.3607177734375,627.5447387695312,630.0697021484375,630.5167236328125,632.62158203125,634.23046875,636.454833984375,639.455322265625,645.1032104492188,648.8049926757812,651.09912109375,655.2586059570312,659.3552856445312,660.5831909179688,708.7091699999999,707.2874,707.48926,706.7867,707.32776,705.9129,705.4540399999998,705.6059600000001,704.8573999999999,705.11615,705.10516,704.0867000000001,703.275,702.8549,703.1804,702.8459499999999,702.2459000000001,702.6051,702.4274,701.63104,702.6422,701.2909,700.7057499999999,700.7167400000001,701.163,701.54877,700.88367,700.4565,700.32965,699.583,699.5382,700.10095,699.86945,699.4678999999999,700.5055,700.24866,700.398,699.7036,700.4347
759.4475,757.80896,757.18115,755.29834,754.14154,752.6976,751.604,750.2819999999999,749.9495,749.22345,747.833,652.1135864257812,649.7110595703125,648.4139404296875,646.0975341796875,641.2513427734375,636.1181030273438,636.9805908203125,634.4721069335938,631.1846923828125,628.4379272460938,627.2960815429688,625.2263793945312,624.4578857421875,622.34033203125,621.384765625,619.4953002929688,619.8525390625,619.519775390625,618.9180297851562,619.0863647460938,617.5964965820312,616.3284912109375,616.4257202148438,614.0357055664062,613.288330078125,612.91796875,613.6755981445312,613.5472412109375,612.50390625,613.753662109375,615.1239624023438,615.8090209960938,618.69384765625,617.8517456054688,619.6450805664062,620.5252685546875,624.0903930664062,626.2373046875,628.776611328125,629.792724609375,630.6642456054688,630.9578857421875,634.71240234375,637.416748046875,638.72802734375,645.3572998046875,649.0050048828125,651.20068359375,656.584228515625,659.544189453125,707.104,706.67236,706.66974,706.0551,706.0956999999999,705.9455,704.4402,704.7251,704.21643,704.22504,703.6159,702.79156,703.0629999999999,702.47546,702.2283300000001,702.22375,702.5942399999999,702.41766,701.8417999999999,701.37286,700.6606999999999,700.9112500000001,700.1554,700.54126,700.28467,700.0836000000002,700.63184,699.3057999999999,699.7054,699.3758,698.5078,700.0651,700.63403,699.6652,699.8643,699.9005,698.8885,699.01154,699.7860000000001
758.3355,757.4409,755.8405,754.5455,753.51086,752.3924,752.1425,749.8965,749.69824,748.1984,652.2732543945312,651.5712890625,648.4935302734375,645.9255981445312,644.6677856445312,642.2779541015625,637.765380859375,635.1196899414062,630.8310546875,629.462890625,627.6162719726562,625.4445190429688,623.2395629882812,620.0917358398438,621.2538452148438,619.3478393554688,618.0316772460938,617.8908081054688,617.2916259765625,614.6659545898438,616.543212890625,615.671875,616.0073852539062,615.1090698242188,615.3294067382812,615.9929809570312,615.1492919921875,616.4351806640625,616.6134643554688,617.8455200195312,616.4138793945312,614.181884765625,614.2102661132812,614.5925903320312,616.53271484375,617.3634033203125,620.2073364257812,621.3711547851562,625.4683837890625,626.55908203125,628.97412109375,629.9854736328125,630.1788330078125,634.0794067382812,636.9717407226562,638.0415649414062,641.650146484375,647.2219848632812,646.561279296875,651.3762817382812,656.614990234375,661.5345458984375,706.8306,705.8833,704.6727,704.9059,704.5599400000001,703.75446,704.0499,703.2493,703.51044,702.1709,702.1402,701.7626,702.14996,701.96796,701.77167,701.1414,700.37573,701.08075,700.48755,700.80414,700.2961,700.08594,699.7814,699.91943,699.46893,699.4452,699.21783,699.0897,698.9075,697.9511,698.57074,698.90424,699.07764,698.6449,697.96826,698.02795,698.3752400000001,698.2039
758.46497,756.9581,755.4047,754.6145,753.71356,752.7385000000002,751.54785,749.9481000000001,748.402,747.51776,652.6624755859375,647.8826293945312,648.6306762695312,644.8611450195312,644.3680419921875,640.5819091796875,637.0921630859375,634.3462524414062,630.9534301757812,628.523193359375,626.3738403320312,624.2484130859375,623.411376953125,621.7348022460938,620.6588745117188,619.1361083984375,617.892822265625,616.7469482421875,615.5756225585938,615.3348999023438,615.266845703125,615.2680053710938,614.8322143554688,614.397216796875,614.5926513671875,615.0018310546875,615.178466796875,614.5225830078125,616.1710205078125,616.7742919921875,616.9240112304688,617.0593872070312,618.781982421875,618.4437866210938,615.6339111328125,617.13232421875,618.3988647460938,620.6814575195312,624.5149536132812,626.543212890625,628.8798828125,629.1841430664062,629.5684814453125,633.0387573242188,635.0167846679688,636.6981811523438,639.5308227539062,644.0347900390625,644.6115112304688,651.1406860351562,654.8162231445312,660.4400634765625,705.4756499999999,704.9041,704.6835999999998,705.34894,704.2080699999999,703.23645,703.9616,702.57587,703.0051000000001,701.9973,702.3177,701.7447,701.1953,701.24194,701.6084,700.7245,699.8856,699.7951,700.2452,700.4847,699.142,698.84924,698.5436,698.2567,699.4059400000001,698.92004,698.2853,698.7086999999999,697.83734,698.3020999999999,698.00964,698.9215,698.3771,697.6254,697.8031,697.6959999999999,698.0271600000001,698.4734000000001
758.5878,756.40796,754.9327,753.3221000000001,752.67346,750.8203000000001,750.4681,749.37787,747.5428999999999,650.9321899414062,650.0720825195312,646.0704956054688,650.38818359375,646.375,643.5585327148438,639.22216796875,636.4451293945312,633.5853271484375,629.7373046875,627.8994750976562,625.7404174804688,623.5731811523438,622.189208984375,618.9822998046875,619.5191040039062,617.9862670898438,617.2686157226562,616.3995971679688,615.0485229492188,614.6072387695312,613.8457641601562,614.4380493164062,613.2415771484375,613.2363891601562,613.6366577148438,613.7774047851562,613.8372192382812,614.7511596679688,614.9177856445312,615.3952026367188,615.8902587890625,615.8568725585938,616.7596435546875,617.2174682617188,619.2749633789062,621.2448120117188,622.8258056640625,625.8699951171875,625.4016723632812,627.4971313476562,629.10205078125,628.41650390625,629.9203491210938,629.47021484375,632.9332885742188,636.4192504882812,640.3408203125,644.0177001953125,641.5510864257812,647.1356811523438,651.5393676757812,658.0423583984375,705.13696,704.52216,704.183,704.18164,703.0412,703.6057,702.7533,702.04663,702.3305,701.66003,701.2666,701.5564,701.4725,699.97974,699.99506,700.6473,700.27277,699.9222399999999,700.32745,699.4486,698.3979,697.9603,697.90845,697.9411,698.36456,697.48395,697.2909,698.535,697.9404,696.80115,696.97473,697.635,697.76636,697.7984000000001,697.1684600000001,697.37573,697.7356,696.9184
756.4243,756.07733,754.3728999999998,753.23846,752.5192,750.42126,749.6828,747.38763,652.0855102539062,649.602783203125,648.129638671875,646.4051513671875,646.3768310546875,644.0257568359375,642.1176147460938,638.9089965820312,635.2023315429688,633.0283813476562,629.7886352539062,626.7421264648438,624.5259399414062,621.4053955078125,621.5519409179688,619.9559326171875,618.878662109375,616.8663940429688,617.131103515625,614.4274291992188,615.393310546875,613.8960571289062,613.5189819335938,612.890869140625,612.8786010742188,612.3545532226562,613.241943359375,613.0135498046875,614.400634765625,613.3692626953125,613.9483032226562,614.5687255859375,615.3114013671875,615.14453125,616.290283203125,616.6265258789062,618.0156860351562,620.518798828125,621.9764404296875,625.023193359375,626.2178344726562,628.1785278320312,628.4572143554688,631.083740234375,632.1572875976562,634.9160766601562,631.5750732421875,637.1658325195312,637.80615234375,640.3079833984375,642.0804443359375,645.9342651367188,650.2852783203125,656.4854736328125,704.4623,703.3786599999999,703.9655,703.34436,702.2321999999999,702.7737,701.944,701.4917,701.5886,701.70276,701.3308,699.90027,700.5034,699.55133,699.54224,699.3995,699.3616,698.352,699.66284,698.42706,698.177,698.3119999999999,697.25885,696.9451000000001,697.9556,698.0827,697.3369,697.6038,696.5555,696.90515,697.01556,696.8053,697.5256,696.684,696.9876999999999,696.58325,696.61975,696.5069600000002
756.29364,754.8288,753.435,752.9885,751.9682,750.84283,748.4468400000001,651.4190063476562,647.4408569335938,647.72998046875,647.287353515625,647.5775756835938,645.2236938476562,642.9385375976562,641.62890625,637.5035400390625,634.6367797851562,632.1000366210938,628.8960571289062,626.739990234375,624.0961303710938,623.8275146484375,620.0817260742188,618.6732788085938,618.0515747070312,616.80322265625,616.8983764648438,614.9073486328125,613.6458129882812,612.9471435546875,612.9469604492188,611.9264526367188,613.149658203125,611.760498046875,613.1159057617188,613.4935913085938,614.7860107421875,613.984375,614.6813354492188,614.2542114257812,615.5628662109375,616.0381469726562,615.3418579101562,617.4102172851562,617.4827880859375,619.8696899414062,619.2859497070312,622.4121704101562,624.6170043945312,625.7109985351562,628.095703125,629.735595703125,630.4686279296875,636.5484008789062,637.1957397460938,638.08203125,638.4453735351562,640.4749145507812,644.032958984375,647.8705444335938,649.8173828125,655.8919067382812,704.3323399999999,703.96,703.3128,703.2042,702.0336,701.4547,701.35126,700.69586,700.9884,700.97955,699.442,700.0462600000001,699.2548999999999,698.9466600000001,699.1454999999999,698.274,699.0569500000001,697.66174,698.12994,698.5362499999999,697.85834,696.8003999999999,697.18823,695.6872599999999,697.0608500000001,696.7793,696.79694,696.3498500000001,696.3077,696.35065,696.2131,696.31464,697.2547,696.17303,697.3515,696.3966,695.7657,695.85004
755.5008,754.17633,753.0210999999999,752.2776,751.5605,749.0305,748.63245,648.989990234375,648.1681518554688,647.840087890625,647.5587768554688,646.740966796875,643.3977661132812,642.1094360351562,639.681396484375,635.8047485351562,632.7794799804688,629.1201171875,626.8883056640625,625.8607788085938,623.21484375,622.5885620117188,620.6510009765625,616.0585327148438,617.7499389648438,617.13818359375,616.7271118164062,615.407470703125,615.3057250976562,612.3324584960938,613.12060546875,612.3707275390625,612.0020751953125,611.138671875,612.1109619140625,612.66259765625,612.19580078125,612.39794921875,614.7803955078125,614.0758666992188,614.0684814453125,613.347412109375,614.1146240234375,616.083740234375,616.2498168945312,618.4212646484375,619.7455444335938,622.0631713867188,623.7042236328125,624.7845458984375,626.6327514648438,628.3648071289062,631.5921020507812,632.9203491210938,635.9188232421875,637.4212036132812,639.0844116210938,641.2384033203125,641.8758544921875,647.70458984375,650.83349609375,656.0280151367188,703.6248,702.89905,702.54,702.2781,701.2878,701.57556,700.48315,700.7322999999999,700.06915,699.7828400000001,699.81,699.4963,698.54175,698.58167,698.7586699999999,698.38116,698.0137,697.67957,697.70105,697.4861,696.90814,696.82104,696.36884,696.6318,696.0857,696.2543,696.0105,695.7508,695.1142,695.4483600000001,695.6471,694.5594,695.9369000000002,695.3735,695.1988,694.95996,695.0959,694.8004000000001
754.7400500000001,753.5653,752.829,752.2378000000001,750.34863,749.9149,653.2820434570312,647.9448852539062,649.7592163085938,646.5443115234375,647.6284790039062,644.6366577148438,642.5283813476562,642.0789794921875,638.539794921875,634.4842529296875,631.419921875,628.707763671875,626.808837890625,624.9321899414062,623.379638671875,621.7498779296875,619.7821044921875,618.2692260742188,617.0811157226562,616.2833251953125,614.9113159179688,615.5233154296875,612.8461303710938,613.6232299804688,613.9658203125,612.2461547851562,611.4974365234375,612.443359375,611.60693359375,612.8071899414062,612.4342651367188,613.2550659179688,613.7552490234375,614.5734252929688,615.14111328125,615.3504638671875,614.1748046875,615.6403198242188,616.1780395507812,617.587158203125,619.722900390625,621.3062744140625,624.1911010742188,624.8995361328125,626.2199096679688,627.7048950195312,628.947265625,632.96630859375,635.5831298828125,636.9122924804688,641.8002319335938,640.6640625,642.0352172851562,646.8157348632812,649.087646484375,657.7962646484375,702.9166,701.96747,701.8024,701.4395,701.1866,701.0704,700.04565,700.43634,699.73315,699.2687,699.51074,698.9965,698.3616,698.1914,698.0843,697.69366,697.604,696.6787999999999,697.31195,696.99615,696.575,696.4252,696.501,695.70264,696.6913999999999,695.4609400000002,695.2421000000002,695.09357,695.02515,694.9622999999999,694.8323400000002,695.2584,694.8371,694.777,694.5835999999999,694.674,695.1135,694.9451999999999
754.6167,753.5105599999999,752.6478,750.9365,750.29144,748.4229,650.49560546875,652.633544921875,649.078369140625,647.7230224609375,647.4685668945312,647.3291625976562,644.0474853515625,641.882080078125,637.7357788085938,633.7367553710938,631.4713745117188,628.837158203125,627.3009033203125,624.48583984375,622.78515625,621.7188110351562,619.6358642578125,618.7892456054688,618.143798828125,616.5254516601562,615.5197143554688,615.1141357421875,614.4620361328125,612.6756591796875,612.6342163085938,612.6444702148438,611.7972412109375,611.9721069335938,612.0123901367188,611.703125,612.9329833984375,613.3173217773438,613.3726806640625,615.2611694335938,615.0411987304688,614.436767578125,615.9682006835938,616.1702880859375,616.2551879882812,617.99658203125,619.454345703125,623.115478515625,622.7047729492188,624.3779296875,626.4901733398438,628.4060668945312,629.5534057617188,631.244873046875,635.0027465820312,639.3343505859375,639.1433715820312,638.3969116210938,641.4183959960938,644.794677734375,649.671875,655.8008422851562,702.5185,702.32623,700.8272999999999,701.9166,700.8639500000002,700.25104,699.104,699.1786,699.0718000000002,698.1482,698.9781,697.1509000000001,697.2501,697.6502700000001,697.3404,698.066,696.3156000000001,695.9954,697.0026,696.28394,695.1872000000001,695.6883,695.25806,695.05536,695.3458,694.5527,695.09906,695.3135399999999,694.02356,694.12823,694.2129,694.5462,694.9207,694.4083,694.3715,693.9929,693.99164,694.6522
754.5958,753.2452,751.7319,751.29834,750.5116,748.32684,647.9937133789062,649.7849731445312,648.5192260742188,648.181884765625,648.491943359375,646.7418823242188,643.9488525390625,641.4026489257812,638.3099975585938,633.8053588867188,631.5850830078125,629.7564697265625,627.3646850585938,626.6556396484375,623.7933349609375,622.2592163085938,619.935791015625,618.9614868164062,617.4779052734375,616.6941528320312,617.1226806640625,614.80126953125,614.2808227539062,613.9115600585938,612.3888549804688,613.3811645507812,611.3134765625,610.82763671875,612.60546875,612.5345458984375,613.798828125,612.6987915039062,614.0464477539062,613.4610595703125,613.990234375,614.4009399414062,614.8931884765625,616.6107177734375,617.0750122070312,618.2899169921875,619.3807373046875,620.4700927734375,622.70703125,623.4276733398438,626.0632934570312,628.2139282226562,628.9801025390625,630.6873168945312,632.593505859375,637.2021484375,637.703857421875,640.0808715820312,640.2703247070312,643.87890625,647.427001953125,654.3333129882812,655.1522827148438,701.9351,700.9272999999998,700.965,699.7806,700.18396,698.63904,698.78955,699.5556,698.60254,698.6458,696.5112999999999,696.8027,697.1317,696.2781,696.6333,695.9186,696.62103,694.9673,695.56067,695.19543,694.84357,694.5232,694.6673599999999,694.48254,694.0696,694.0003,694.183,693.9949,693.4576400000001,694.441,693.3342,694.38873,693.7541,692.9867,693.4058,693.6421,694.418
753.6615,752.2995000000001,751.13696,750.7822,748.2941,747.8042600000001,650.0245971679688,649.92724609375,647.6033935546875,648.4048461914062,648.0620727539062,645.6297607421875,643.626708984375,640.2044067382812,636.7013549804688,633.6318359375,630.216796875,628.3472290039062,626.014892578125,625.4669189453125,624.4053955078125,622.9256591796875,620.2505493164062,618.8048095703125,617.9229736328125,616.1842041015625,616.9674682617188,613.9415283203125,614.9937744140625,613.7644653320312,612.3209228515625,614.4080810546875,613.0199584960938,612.388427734375,612.3760986328125,612.186767578125,612.5635375976562,612.0614013671875,613.0299682617188,613.5587768554688,613.091552734375,613.9091186523438,613.7473754882812,614.5276489257812,616.573974609375,618.0179443359375,618.307373046875,620.2796630859375,620.2315673828125,623.3029174804688,624.146728515625,626.3961791992188,627.5623779296875,630.5553588867188,632.8055419921875,637.4974975585938,638.9170532226562,638.0695190429688,639.4658813476562,642.6473388671875,646.0307006835938,650.4556274414062,654.4148559570312,700.294,700.42456,700.34375,699.738,699.0082,698.12787,698.059,698.055,697.0514000000001,697.8634,696.0713,695.9274,695.9977000000001,695.62006,697.0237,695.3037,695.47363,695.14813,695.38763,695.1608,694.50476,694.1547,694.3336,693.9621999999999,694.51855,694.2537,692.9053,693.3072500000001,693.3604,693.2469000000001,692.78955,693.4102,693.7548000000002,692.9778,693.1549,693.38763,693.09845
753.6190999999999,752.4510499999999,751.6783,749.4699,748.58704,650.990234375,650.040771484375,649.278076171875,649.0371704101562,648.4464721679688,647.3854370117188,646.4375610351562,644.19482421875,640.7561645507812,636.9931030273438,634.3345336914062,630.7319946289062,628.088134765625,625.7803955078125,624.3203735351562,622.6643676757812,621.3020629882812,619.40966796875,618.6996459960938,617.626220703125,616.0686645507812,615.5753784179688,615.5924072265625,615.0304565429688,613.9067993164062,613.6634521484375,613.3705444335938,613.2835693359375,612.4340209960938,612.4424438476562,612.1373901367188,612.8999633789062,612.885009765625,613.1513061523438,613.3075561523438,613.9784545898438,614.3262329101562,613.5250244140625,614.8637084960938,615.9895629882812,617.1111450195312,620.255615234375,620.6253051757812,623.627197265625,623.6286010742188,624.3692626953125,626.8635864257812,627.383544921875,629.9592895507812,631.9387817382812,636.1846313476562,636.8267211914062,636.8184814453125,639.856201171875,642.0184936523438,644.8895874023438,649.2525634765625,653.4658203125,659.700927734375,699.8106,698.8425,698.7451999999998,699.1103,698.3925999999999,698.153,698.31586,696.796,696.68536,695.92664,695.92944,695.67316,696.06104,696.0934399999999,695.4798600000001,694.81274,694.51105,694.76324,694.1056000000001,693.4641999999999,694.4552,693.8472,694.1742,693.3522,693.2997,693.3442,693.0458999999998,692.9089999999999,692.8996,692.3332,692.4592,692.8103999999998,693.2556999999999,693.06116,693.0685,692.42633
752.5207,751.2396,750.6893,749.1014,748.161,650.8193359375,649.7684936523438,648.7935791015625,649.24169921875,648.375244140625,647.275634765625,647.2283935546875,644.9843139648438,640.5172729492188,637.1962890625,635.4298706054688,630.9221801757812,629.0999755859375,626.5534057617188,624.938232421875,621.834228515625,620.53955078125,619.35546875,618.6583862304688,618.5413818359375,617.7886352539062,615.95654296875,615.105712890625,614.516845703125,614.4254760742188,614.2786865234375,613.6148071289062,613.4370727539062,612.788818359375,612.9171752929688,613.8650512695312,613.7055053710938,613.826416015625,614.2943115234375,613.7431640625,613.6647338867188,613.8148193359375,614.1931762695312,614.3424682617188,617.39404296875,618.0404052734375,618.7713623046875,620.8241577148438,621.9019165039062,623.2676391601562,623.5913696289062,627.0953979492188,627.3245849609375,629.642578125,632.8176879882812,636.649658203125,636.8640747070312,637.5846557617188,640.1399536132812,642.1678466796875,644.1742553710938,648.8759765625,653.004150390625,656.73388671875,699.5184,698.5519999999999,698.94995,697.8241,697.7110600000001,697.1317,697.34686,696.73773,696.2793,694.71234,695.24695,695.0167,695.2315,694.03,694.3489,694.9375599999998,695.1415,693.8607,693.8068,693.8951399999999,693.5746,693.0055500000001,692.7369,692.4689,692.8364,693.2012,692.4954,692.3232,692.25256,692.7383,692.8666,692.6684,692.7398700000001,692.7962,691.93317,691.90344
752.4036,750.69653,749.6324500000001,748.6356,747.5055499999999,653.0158081054688,651.9046020507812,649.5238647460938,646.686767578125,647.37646484375,647.126220703125,646.3135375976562,644.3241577148438,640.4518432617188,637.9527587890625,633.4829711914062,633.0894165039062,629.4164428710938,627.0015869140625,625.7479858398438,622.718994140625,620.7243041992188,619.149169921875,618.958740234375,617.923828125,618.5192260742188,615.730712890625,615.3008422851562,615.5655517578125,614.5342407226562,614.5636596679688,613.72802734375,613.2542114257812,613.30859375,614.2479248046875,613.6407470703125,612.8995361328125,614.2443237304688,613.0390625,614.1452026367188,614.007080078125,614.0249633789062,614.8385620117188,614.8113403320312,615.943359375,617.171875,617.29150390625,619.499755859375,620.5359497070312,622.9235229492188,624.6305541992188,625.93310546875,626.5181274414062,628.55322265625,633.45361328125,635.1939697265625,636.9913940429688,635.9697265625,640.1004028320312,642.3452758789062,644.4443359375,650.0902709960938,652.508056640625,657.6771850585938,698.18066,698.77386,697.6817600000002,697.06305,696.3208,696.93164,696.3590999999999,695.59326,695.62134,695.7786999999998,694.5520999999999,694.2716,694.2031,694.422,693.7312,693.06635,694.4827,693.90906,692.4442999999999,693.4595,693.21466,692.2185,692.1558,692.6309000000001,692.36084,691.88214,691.71466,692.19165,691.6682000000001,691.3521000000001,691.6398300000001,691.9068,691.92444,691.7982,691.6967,691.4056
751.7239,749.9965,749.7395,747.9121,747.3181999999999,653.788330078125,653.9103393554688,649.2864990234375,646.8326416015625,647.4058227539062,646.2633056640625,645.4470825195312,644.3662719726562,640.2152709960938,636.3145751953125,634.0827026367188,631.687744140625,629.2951049804688,627.732421875,625.4155883789062,622.6253662109375,621.0186157226562,619.816650390625,619.7380981445312,617.9912719726562,617.9508056640625,615.9530639648438,615.9205932617188,616.2218017578125,615.9059448242188,614.7112426757812,614.5292358398438,613.8964233398438,613.527099609375,613.169189453125,612.914794921875,613.0138549804688,613.4771118164062,613.984130859375,612.5142822265625,613.6864624023438,613.8511352539062,615.4136962890625,616.2864990234375,615.2727661132812,616.9503173828125,618.544189453125,619.984130859375,622.16748046875,623.2697143554688,624.5438232421875,626.86279296875,627.2999267578125,629.399169921875,632.2530517578125,635.5759887695312,637.19287109375,637.9434204101562,639.0006103515625,641.3341674804688,643.5305786132812,649.9683227539062,653.140869140625,658.1288452148438,697.98596,697.9247399999999,696.51215,696.6561,695.98846,695.96606,695.6893,695.6915000000001,695.6161,694.7443,694.8667,693.99146,693.5951,694.0204,693.4677999999999,693.6303,693.19617,693.4646599999999,691.8667,692.75574,692.6209,691.3981,692.0361,691.7235,690.9289,692.0812,691.6481999999999,691.9502,691.3724,691.5823,691.177,691.7295,691.2564,691.6830400000001,691.71533,691.7550700000002
751.96387,750.2158,749.0899,747.6386,650.9243774414062,655.030517578125,653.8756713867188,650.4462280273438,646.882568359375,646.9813232421875,647.1080932617188,645.6425170898438,645.2808837890625,640.8529663085938,636.7620849609375,633.37646484375,630.8661499023438,629.2215576171875,627.323486328125,624.8712158203125,623.0340576171875,622.4407958984375,619.7769775390625,620.1581420898438,618.990234375,616.9176025390625,615.8880615234375,616.0965576171875,615.0079956054688,617.013427734375,615.4423828125,615.732421875,615.4584350585938,614.5051879882812,614.4240112304688,613.1143188476562,613.6316528320312,613.0209350585938,613.626953125,613.791015625,612.8148193359375,613.1748657226562,614.5889892578125,615.43359375,617.2131958007812,617.6864624023438,617.5919189453125,620.7854614257812,622.4248046875,622.9185791015625,625.0140991210938,627.4365234375,627.45947265625,629.802001953125,632.9003295898438,634.5947875976562,637.5206909179688,638.585205078125,639.9098510742188,642.4647827148438,644.656494140625,647.9750366210938,653.9133911132812,657.0299072265625,697.5705600000001,697.4109,697.3508000000002,695.8135,696.4773,694.61584,696.04034,695.30597,694.62555,694.3215,694.37994,693.4545,693.3803,692.85297,693.4256,692.16156,692.22485,692.5050999999999,692.47473,691.7442,691.4585,691.0521,691.9243,692.16425,691.21344,691.71704,691.3671999999999,691.0947,690.7869,690.97046,690.6392,691.22876,691.57263,690.9966,691.08014,690.5906400000001
751.2046,749.2663,748.71436,747.2175,746.3551,652.1183471679688,651.5955810546875,648.9058837890625,646.4801025390625,647.0355834960938,646.5919189453125,645.2933959960938,645.8662719726562,641.0828857421875,637.9071655273438,633.263427734375,630.6505737304688,627.8595581054688,626.013427734375,624.8057250976562,623.5240478515625,622.5042114257812,620.5233764648438,620.146484375,618.8154907226562,617.56201171875,617.6389770507812,616.289794921875,614.6085815429688,615.2154541015625,614.6060791015625,614.2106323242188,615.801513671875,614.3186645507812,613.6773681640625,613.0468139648438,614.762451171875,614.1531982421875,614.256591796875,614.3764038085938,614.1880493164062,613.3487548828125,615.1019897460938,614.9959716796875,616.0747680664062,617.0192260742188,618.344970703125,619.8350830078125,621.427490234375,622.7073974609375,624.3430786132812,627.1969604492188,629.2859497070312,630.986572265625,632.6180419921875,636.8706665039062,636.4859619140625,639.9638671875,639.4892578125,642.5491333007812,644.1199340820312,648.4231567382812,652.7017211914062,655.4125366210938,697.60095,697.0561499999999,696.72504,696.7521999999999,694.7866,694.462,695.1337,693.7971,693.7586,693.99023,693.05225,692.873,694.364,692.6153999999999,692.7678000000001,692.7764,692.4617,692.28064,691.8746999999998,691.4315,690.8344999999999,691.1205,691.20325,690.798,690.624,690.6281,691.0328400000001,690.276,690.4740000000002,690.39075,691.0078999999998,690.3335,690.482,690.76996,689.9595999999999,690.8867
750.71497,749.3591000000001,747.637,746.827,746.0,652.8947143554688,651.2853393554688,648.6693725585938,646.33203125,647.2814331054688,644.5260620117188,645.375,644.6961669921875,641.7182006835938,637.27392578125,634.6729125976562,631.441650390625,628.9033203125,626.6279296875,625.2950439453125,624.371826171875,622.7025756835938,621.951904296875,619.7913208007812,619.7266235351562,617.6846923828125,616.9306030273438,616.8121948242188,615.3834228515625,614.4727783203125,614.9212646484375,614.3424682617188,614.4254760742188,614.4134521484375,615.2689819335938,614.4986572265625,614.0731201171875,614.9951782226562,614.7576293945312,614.7495727539062,615.1046752929688,615.82373046875,615.08642578125,614.6937866210938,616.9811401367188,618.007080078125,618.8724365234375,620.805908203125,622.087890625,623.3988647460938,625.61669921875,627.8923950195312,628.9878540039062,631.3638916015625,633.79833984375,636.5623779296875,639.2559204101562,638.29541015625,639.5670166015625,641.5431518554688,644.796630859375,647.9390258789062,654.248779296875,657.808837890625,697.3194,695.7372399999999,696.1505,694.4048,695.04034,694.7664,694.71893,694.1616,693.53845,693.2938,692.867,692.27435,692.7488,692.49335,692.67426,691.99274,692.276,691.853,691.2631999999999,691.0249999999999,690.62286,691.2103,690.89154,690.748,690.4909,690.02966,690.3084,690.1639,690.57275,690.4787,690.2674,689.8876,690.32477,690.2356,690.1482999999998,690.0829999999999
749.5063,748.34406,747.2195,746.9045,744.9505999999999,651.8491821289062,649.0128784179688,647.5322265625,647.0355224609375,647.263916015625,644.9486694335938,645.4410400390625,642.6466674804688,639.7777099609375,636.0018920898438,633.1385498046875,629.8214721679688,628.9800415039062,627.4669189453125,626.60107421875,624.5756225585938,622.700439453125,623.4794921875,621.7615356445312,621.2659912109375,619.7269897460938,618.1699829101562,616.3960571289062,615.1054077148438,616.2958374023438,615.080810546875,614.6326904296875,614.8735961914062,613.6940307617188,615.5150146484375,614.0979614257812,613.4803466796875,615.1436157226562,615.0167846679688,614.0574340820312,615.640869140625,614.3287963867188,614.402099609375,617.7500610351562,618.923828125,619.3516845703125,621.55078125,620.802978515625,621.7665405273438,623.7764282226562,626.4827880859375,628.8482666015625,629.5399780273438,632.6154174804688,634.8595581054688,637.317138671875,638.0750122070312,638.8068237304688,640.7136840820312,642.2207641601562,647.8270263671875,649.6060180664062,654.8002319335938,658.8619995117188,696.80273,696.53143,695.616,693.9369,694.223,694.2967999999998,694.5956,693.4715,693.4911,693.43616,692.63055,692.6829,692.2648000000002,692.0866,691.7229599999998,691.4556,691.1513,691.589,690.50244,690.2347399999999,690.34155,690.4922999999999,690.42865,690.28687,690.1071,689.8668,689.4773599999999,689.99786,690.272,689.55414,690.2518,689.68304,689.8019,689.9367,689.80664,689.93964
749.47705,747.6188,746.62274,745.9945700000001,745.09326,651.1277465820312,649.013671875,647.208251953125,645.634765625,646.2589111328125,645.0326538085938,645.5528564453125,642.4761352539062,640.5841064453125,636.4058837890625,633.6361083984375,630.6137084960938,628.6885375976562,627.176513671875,626.0908813476562,625.0833740234375,624.354248046875,622.102783203125,621.0776977539062,621.3634643554688,619.070068359375,618.1815185546875,616.8392333984375,616.4491577148438,616.0350952148438,616.0528564453125,615.527099609375,614.9400634765625,614.8186645507812,614.080322265625,614.4673461914062,614.1243286132812,614.1887817382812,614.812744140625,614.8438720703125,613.8998413085938,616.671142578125,616.6221313476562,616.8057861328125,617.7717895507812,619.3827514648438,619.9005737304688,620.9635620117188,622.1112060546875,623.5503540039062,625.55419921875,628.8119506835938,631.3150634765625,632.120849609375,634.1126708984375,640.9225463867188,640.6249389648438,640.5602416992188,641.6717529296875,644.6264038085938,647.5480346679688,650.92529296875,654.2626342773438,659.382080078125,695.9322499999998,695.7964,695.0082399999999,694.57263,693.8612,693.5682399999998,694.0711999999999,693.3471,692.5685,692.9438,691.5747,691.8426,692.0273,691.77637,691.4083,690.6403,691.53314,690.9443,690.45233,690.5123000000001,690.4672,690.37537,690.06793,689.8883,689.82764,689.5745999999999,690.1467,689.1432499999999,689.1252,689.5226,689.4703,689.671,689.5124,689.38226,688.6462,689.4563600000001
748.6306,747.794,746.36206,745.48486,744.3611,652.7833862304688,649.1965942382812,647.2310791015625,645.5604248046875,646.6396484375,646.8311767578125,645.8724365234375,643.8673706054688,641.8585815429688,639.722412109375,634.5985107421875,630.6740112304688,628.4767456054688,626.4105224609375,626.3986206054688,625.0762329101562,624.3096313476562,621.8611450195312,621.077392578125,620.241455078125,618.5653686523438,618.695068359375,617.605712890625,617.1485595703125,616.002197265625,616.1871337890625,615.2875366210938,615.0716552734375,615.27978515625,614.3883666992188,615.074951171875,615.1253662109375,615.1654052734375,613.9851684570312,615.8973388671875,615.623291015625,616.2267456054688,616.0361938476562,616.531005859375,617.944091796875,619.3744506835938,620.3726806640625,621.076416015625,622.201904296875,623.9229736328125,625.30908203125,629.3159790039062,630.5303955078125,632.94970703125,637.1507568359375,639.5968017578125,640.5470581054688,640.82666015625,641.6505126953125,644.1057739257812,645.9036865234375,651.9663696289062,654.322509765625,654.8959350585938,695.94446,694.9609,694.99414,694.4632,693.50256,693.23596,693.3001,693.2588499999999,692.6009999999999,692.39886,691.5037,691.7485,691.43195,691.66675,691.22876,691.124,690.6019000000001,690.8601999999998,690.69684,690.4131,689.663,689.9788,690.0532,689.39484,689.48267,689.1506000000002,688.7937999999999,689.1042,689.50146,689.4165599999999,689.8116,689.2224999999999,689.25165,689.34546,689.5681,689.0169000000001
748.50995,747.34924,746.0689,745.37366,744.4596,653.22314453125,649.5526733398438,647.1620483398438,644.95849609375,645.2547607421875,644.8959350585938,644.6768798828125,643.0357666015625,640.8920288085938,638.8554077148438,634.7357177734375,632.1336059570312,629.3143310546875,628.3453369140625,626.6552124023438,625.4069213867188,624.7095947265625,623.74853515625,622.9786987304688,621.4366455078125,619.9453735351562,618.9822998046875,619.69873046875,619.0470581054688,617.7759399414062,615.32275390625,615.5889892578125,615.7890014648438,615.4945068359375,614.3909301757812,615.4622802734375,615.7260131835938,615.0569458007812,614.7807006835938,615.05419921875,614.9323120117188,615.3024291992188,616.205810546875,617.376708984375,618.3488159179688,619.3341064453125,620.9747924804688,621.8411865234375,622.968505859375,625.7440795898438,626.6851806640625,628.5383911132812,631.5078735351562,634.3541259765625,635.350830078125,639.1845092773438,640.2857055664062,641.4913940429688,642.66259765625,644.3484497070312,646.8016357421875,650.8908081054688,654.8273315429688,658.2994995117188,695.1466,695.15375,694.2084,693.7586,693.12646,693.1343000000002,692.0951,691.8955700000001,692.2844,692.3294699999999,691.51306,690.7023300000001,691.7463,690.9571,690.4603,690.75214,690.3546,690.5286,690.6381,689.9625000000001,689.0048,689.46185,689.9667,689.2091,688.781,688.64233,688.7224000000001,688.47723,689.1517,688.4032,688.53186,688.65656,688.6830399999999,688.3277,688.9285,688.3841
747.91455,747.26984,746.51416,744.1040599999999,743.5188,653.283203125,651.496826171875,647.9965209960938,645.501220703125,645.8336791992188,644.7191772460938,643.7481079101562,642.8977661132812,640.4266967773438,636.5402221679688,635.0675659179688,634.272705078125,632.6969604492188,629.795654296875,628.69091796875,623.863525390625,625.1389770507812,623.531005859375,622.6360473632812,621.8128662109375,620.4053955078125,620.5887451171875,620.2969970703125,618.7077026367188,618.0634765625,616.5577392578125,615.7029418945312,615.8147583007812,615.2973022460938,615.4846801757812,614.6511840820312,615.1484375,615.519775390625,615.3429565429688,615.8405151367188,615.6874389648438,615.7706298828125,617.1760864257812,617.175048828125,618.7691040039062,620.2531127929688,621.2014770507812,621.9932250976562,623.5723266601562,626.700927734375,626.5116577148438,628.4083862304688,631.0288696289062,633.2162475585938,636.75830078125,638.8827514648438,640.5324096679688,643.1370849609375,643.2001342773438,644.4913940429688,646.2533569335938,652.3150024414062,656.9102172851562,654.7820434570312,694.67267,694.1546600000001,693.82166,693.7764,693.28973,692.5071,692.8413,691.82855,691.938,691.4590499999999,691.1469,691.26306,691.00195,690.8230000000001,690.44934,689.86743,690.3773,690.31134,690.3963999999999,689.5995,688.9436,688.2808,688.91785,689.2602999999999,688.52075,688.8556,688.15466,688.7735,688.7102,689.1011000000001,688.0881999999999,687.7645,688.1997,688.3869,688.2554300000002,687.38
747.967,746.0699,746.11017,744.379,744.0858000000001,653.322021484375,650.16259765625,647.7893676757812,646.000244140625,645.9811401367188,645.4525146484375,644.9776611328125,642.0015869140625,639.5626831054688,637.9149780273438,635.0172119140625,633.829833984375,632.7567749023438,629.7431640625,628.6282958984375,625.9798583984375,623.1807861328125,622.9061889648438,622.0846557617188,620.9722900390625,620.5846557617188,619.6133422851562,619.7780151367188,619.0886840820312,619.0995483398438,617.4946899414062,617.5640258789062,616.6395874023438,616.617431640625,615.7847290039062,615.1732177734375,615.7907104492188,615.519287109375,616.7450561523438,617.0045166015625,616.2218627929688,616.9717407226562,618.7766723632812,618.8092041015625,620.8505859375,620.4844970703125,621.2552490234375,621.8262329101562,624.0364379882812,625.5441284179688,629.6588134765625,629.408935546875,631.9791259765625,634.163818359375,637.0751342773438,639.5289916992188,641.2122802734375,643.5400390625,643.9136352539062,645.4002685546875,647.51708984375,650.4553833007812,656.4148559570312,656.1521606445312,694.7715,693.8659,693.72534,693.2231,692.8153,691.9836399999999,692.26666,692.35455,690.98413,691.7470000000001,691.2946999999999,690.90643,690.4624,689.6781,690.89056,690.08624,690.1874399999999,689.9670000000001,689.4777999999999,688.3492,689.01917,688.8563999999999,688.1338,688.9903000000002,688.1225,688.6746,687.8963,687.325,687.9283,687.505,688.6816999999999,687.1931,688.0162,687.7993000000001,687.4336,687.9942600000002
747.06836,745.8176000000001,744.7819,744.3536,743.01154,652.55078125,650.126220703125,648.0372314453125,647.7998657226562,648.284423828125,647.9049072265625,645.8036499023438,643.836181640625,641.417724609375,638.5892333984375,636.4700927734375,634.93115234375,631.9953002929688,628.3478393554688,626.613525390625,625.6177978515625,624.671142578125,622.7327880859375,621.7816772460938,620.951904296875,620.5972290039062,620.2156982421875,620.0626831054688,620.3489379882812,620.1046752929688,618.3040771484375,617.310791015625,617.0990600585938,616.92529296875,616.6321411132812,616.7757568359375,616.5419921875,615.9734497070312,616.017578125,619.2404174804688,617.228759765625,617.3336791992188,618.0181884765625,618.607421875,620.2283935546875,620.457763671875,621.3159790039062,622.9444580078125,625.157958984375,627.0242309570312,628.577392578125,631.3411865234375,632.535400390625,635.4141235351562,638.0770263671875,640.0654296875,642.4638061523438,646.54443359375,646.3201293945312,648.9751586914062,648.4697875976562,650.1309814453125,657.6828002929688,694.049,694.0495599999999,693.2699,693.0186000000001,693.1071,692.4836,691.7658,691.78156,691.825,691.1455,690.9659,690.58545,690.5118,690.5952,690.58264,689.4799,689.7003,689.5693,689.7341,688.4335999999998,688.19904,687.457,687.99536,687.85596,688.55597,688.4095,687.92816,687.5323000000001,687.0869,687.62195,688.0019500000001,686.77814,687.15454,687.01843,687.2184400000001,687.44183,686.9462999999998
747.3856,745.0245,744.8086,743.9394500000001,742.0707,653.7352294921875,651.61865234375,648.7451782226562,647.5322875976562,648.6096801757812,648.7809448242188,646.1346435546875,642.597900390625,641.080810546875,637.7362670898438,635.5059204101562,633.6524047851562,631.5709228515625,630.0786743164062,627.02880859375,625.4807739257812,624.4857177734375,623.0623168945312,622.1300659179688,621.5337524414062,621.4647216796875,620.8875732421875,619.0099487304688,620.3876953125,619.940673828125,618.9454345703125,617.8888549804688,617.4552001953125,616.8969116210938,615.88427734375,616.5945434570312,616.5095825195312,616.2090454101562,618.3287353515625,618.3055419921875,618.709716796875,618.131591796875,618.470458984375,618.2304077148438,619.8623657226562,620.8042602539062,621.8099975585938,623.0885009765625,625.5651245117188,627.7268676757812,630.2628173828125,632.9822387695312,633.1640014648438,635.0758666992188,638.6882934570312,639.582763671875,642.1428833007812,645.912353515625,647.3853759765625,650.2554321289062,652.8817138671875,653.2916870117188,657.1422119140625,693.51917,693.9695,692.9208,692.8196,692.6129000000001,692.05237,692.3985,691.40515,690.9925,690.5643,690.9362999999998,690.57294,690.5448,690.53973,690.39526,688.9358,688.505,689.7447999999999,689.0693999999999,689.1711,687.61273,688.1893,687.5772,688.0271,687.9577,687.2044,686.82855,687.3972000000001,687.7486,686.67053,687.3313,686.90375,686.7574,686.7485999999999,687.21405,686.2421,686.9411
747.67535,745.1521,744.1686400000001,744.0034,741.62866,655.4918823242188,652.8006591796875,649.1902465820312,648.0587768554688,648.6658935546875,648.9114379882812,645.6259155273438,642.3799438476562,640.5154418945312,636.9451293945312,636.0363159179688,633.5403442382812,632.3259887695312,629.94189453125,628.9208374023438,626.0029907226562,625.1484375,623.6013793945312,623.0667114257812,622.5216674804688,622.3701782226562,621.7098388671875,622.024169921875,620.6470947265625,619.946044921875,619.6563720703125,618.5702514648438,619.498046875,618.4512939453125,617.3721313476562,617.403076171875,617.2634887695312,617.9935913085938,617.5258178710938,617.8798217773438,617.0780029296875,620.2299194335938,619.5819091796875,620.5966796875,620.384765625,622.3119506835938,623.9974975585938,623.9916381835938,626.77001953125,629.535400390625,630.3380126953125,631.7257080078125,634.1268310546875,635.3624267578125,638.8582763671875,641.3179931640625,645.1557006835938,648.1439208984375,647.83251953125,648.5382690429688,651.0576782226562,654.9296875,660.141357421875,693.65875,693.3549,692.6304,692.598,692.1184700000001,691.7138,691.4865,691.1892,690.78345,690.3917,689.978,690.9519,690.3693,690.0428,689.801,689.2174,687.65924,689.3728,688.6087,688.1605,687.7837999999999,687.70215,686.89075,687.4001499999999,687.13666,687.525,686.7314,686.2864,686.8056,686.19543,686.9772,686.5451,686.0851,686.54144,685.7799,686.45483,686.4859
746.40485,745.17175,743.70593,742.6158399999999,741.0433,655.9888916015625,653.09912109375,650.1505126953125,648.298583984375,648.8994140625,651.888916015625,647.6510009765625,643.699951171875,641.6543579101562,639.048583984375,637.4153442382812,634.1365966796875,634.4231567382812,632.2030639648438,629.0327758789062,628.5121459960938,628.0933227539062,626.8727416992188,626.16796875,623.37255859375,622.68310546875,622.24609375,621.8702392578125,621.252197265625,620.5997314453125,620.180419921875,620.6546020507812,619.9312744140625,619.9195556640625,618.3322143554688,618.1694946289062,617.6253662109375,618.0323486328125,618.6069946289062,618.9376831054688,618.4156494140625,618.87451171875,620.5752563476562,620.22412109375,621.2958984375,620.9379272460938,622.825927734375,625.4742431640625,625.9696044921875,628.7437744140625,630.5811157226562,633.9052124023438,635.8946533203125,637.60400390625,638.1012573242188,643.464111328125,645.7271728515625,648.6336669921875,649.3456420898438,650.46728515625,649.8600463867188,656.888671875,659.4402465820312,693.5721,692.6705,692.8969,692.1134,692.1686,691.18494,691.3722,690.89496,690.5843,690.2648999999999,690.1317,689.7672,689.35986,690.2999,689.1303,688.7158999999999,688.1197499999998,688.42505,687.95483,687.7126,687.9076,686.834,687.7805,687.0808999999999,687.0281,686.7569000000001,685.7879,685.61865,686.8839,686.4192,686.59357,686.1521600000001,686.6766,686.8478400000001,686.4779999999998,686.07007,686.04736
746.60034,744.6259,743.1675,742.7048,742.0884,656.9093627929688,653.2068481445312,651.2112426757812,648.884033203125,650.3658447265625,651.3875732421875,647.4666748046875,643.6220703125,642.1620483398438,641.0709838867188,637.7047119140625,636.8163452148438,635.4094848632812,632.4573364257812,629.09521484375,629.2398681640625,628.3458862304688,625.3779296875,624.8056030273438,624.3670043945312,623.390625,622.4889526367188,621.93359375,621.6563720703125,621.4706420898438,621.3998413085938,621.3851928710938,620.4107055664062,619.1400146484375,620.3414306640625,618.873046875,619.0511474609375,619.0396728515625,620.38916015625,619.7141723632812,618.6414794921875,618.8133544921875,620.0900268554688,620.591796875,620.7908935546875,621.847900390625,622.8648071289062,624.59521484375,626.8145751953125,629.444580078125,630.9395751953125,634.0809326171875,635.7415771484375,637.427001953125,637.6565551757812,640.7727661132812,645.1557006835938,648.9942016601562,648.1025390625,647.814697265625,653.2510375976562,658.5051879882812,659.1994018554688,693.0827999999999,693.1522,692.71954,692.1661,691.58417,691.2021,691.1061,690.4566,690.41766,689.8814,689.5167000000001,688.89594,688.8034700000001,690.043,688.6917,688.9607,688.06134,688.4898,687.9783,687.8417,687.2554,686.36115,686.0992999999999,685.95215,686.425,685.98505,685.2764,686.11237,685.81024,685.7032000000002,686.0211000000002,686.4137600000001,685.82874,685.6728499999999,685.885,686.0971,685.1594
745.9154,744.79285,743.0805699999999,742.8731,741.9335,657.4739379882812,654.4826049804688,651.0025024414062,648.947998046875,648.6263427734375,648.8685913085938,646.4990234375,643.4374389648438,641.4669799804688,639.9824829101562,637.6495361328125,636.238525390625,634.644287109375,631.725830078125,631.4188232421875,628.1018676757812,627.8573608398438,626.9068603515625,624.47900390625,624.0014038085938,623.07470703125,622.6231079101562,622.3798217773438,621.4240112304688,621.5642700195312,622.074462890625,621.44287109375,621.34130859375,621.6156005859375,620.3189086914062,621.1333618164062,620.0147705078125,619.604248046875,620.3318481445312,619.979736328125,620.356201171875,619.79541015625,620.7545166015625,621.369384765625,621.0470581054688,622.729248046875,623.8698120117188,626.0376586914062,629.29638671875,631.169189453125,631.025634765625,633.607421875,635.1091918945312,637.4200439453125,638.95556640625,641.4864501953125,645.8758544921875,648.0742797851562,653.1300659179688,651.729736328125,655.650390625,656.0269775390625,692.1894499999999,692.6017,692.3423,691.4215,691.2763,691.14374,691.17444,690.8726,690.3685,690.5042000000001,690.49854,689.4858999999999,689.5536,688.5654999999999,688.76215,688.6179,687.82513,688.1877399999998,688.6935,687.5942,686.58655,686.64905,686.133,686.1490000000001,686.8017,685.87213,686.4002,686.0893999999998,684.8769,685.7592,685.7484,685.60114,685.9193,685.8781999999999,685.33997,685.33203,685.14777,685.14417
745.59906,743.76776,742.6884,741.8704,741.0472400000001,658.2749633789062,654.7022094726562,650.899658203125,648.6060791015625,648.5841064453125,649.34619140625,647.2053833007812,644.2896728515625,641.2855224609375,639.2610473632812,638.4494018554688,635.888427734375,634.6038208007812,631.5874633789062,630.5631103515625,628.6210327148438,626.6701049804688,626.1968383789062,625.3372192382812,624.4218139648438,622.7116088867188,622.3331909179688,622.6338500976562,623.0957641601562,622.468017578125,620.8871459960938,621.6296997070312,621.403564453125,621.2184448242188,620.9873046875,620.904541015625,620.8516845703125,619.963134765625,619.9801635742188,619.9273071289062,620.0126953125,620.76220703125,621.6343994140625,621.47900390625,622.2627563476562,623.6611328125,624.1585693359375,626.3326416015625,627.6387939453125,630.7098388671875,631.8590087890625,633.07568359375,635.7481689453125,638.1122436523438,639.6988525390625,642.7532348632812,648.0927734375,649.8884887695312,650.3897705078125,650.1478271484375,656.7068481445312,659.4959106445312,692.9927,691.9827,692.3939,691.4875,691.03876,690.88086,690.8896500000001,690.4643599999999,690.3204,689.6056,689.4334000000001,688.8778,688.6322,688.10474,688.3247,688.0451,687.9204,686.6519,686.3921500000001,687.2758,686.95966,686.1316,686.4430500000001,685.78125,686.1704,686.177,685.7402,685.64624,685.6369,685.55457,684.7330999999999,685.2585999999999,684.8568,684.9778000000001,685.4998,685.0565,684.84143,685.2324
745.20215,743.9022,742.99786,741.06287,740.4967999999999,739.4786999999999,654.8499755859375,650.6737060546875,649.4276733398438,648.8781127929688,649.7107543945312,648.0983276367188,647.376708984375,642.0770874023438,640.2106323242188,637.9389038085938,635.7666015625,634.8634643554688,632.5162963867188,631.5748901367188,629.2488403320312,628.2227172851562,627.790283203125,627.040283203125,625.6358642578125,623.8214721679688,623.6079711914062,623.9017333984375,623.3197021484375,622.470947265625,622.3042602539062,621.3565063476562,621.3838500976562,621.6831665039062,620.783935546875,621.2540283203125,620.9894409179688,620.8407592773438,620.5225830078125,620.3712158203125,620.1591186523438,620.1301879882812,621.2811279296875,621.0888061523438,621.6578979492188,622.39208984375,623.9484252929688,625.9448852539062,626.8890991210938,630.5545043945312,633.4998779296875,634.4968872070312,637.49072265625,639.2118530273438,642.448974609375,644.492431640625,646.6661376953125,649.20947265625,649.14794921875,652.1900024414062,658.4002075195312,659.4493408203125,692.58594,692.4187,691.328,691.08484,691.2592,690.6476,689.955,690.5906,689.9411,689.3998999999999,689.0569500000001,688.0692,688.4719,687.59076,688.22327,688.0044,687.31323,687.52606,687.6171,687.1067500000001,686.6853000000001,685.6497,686.3436,685.4197,685.76843,685.9962,685.5904,685.106,685.7523000000001,684.6432500000001,685.5015000000001,685.6938,684.52783,685.49976,684.9,684.99524,684.72485,684.9547
745.1488,743.6079,742.2067,741.1383,740.1431,738.5345,654.3861083984375,651.2827758789062,648.6083374023438,648.5772094726562,648.742919921875,649.8500366210938,645.3793334960938,644.0441284179688,641.7651977539062,639.9298095703125,638.7410278320312,635.9381713867188,632.5350341796875,633.4993896484375,629.8963623046875,630.533447265625,628.4735717773438,625.8945922851562,627.1763305664062,625.2293701171875,625.394287109375,624.3424682617188,624.5088500976562,623.492919921875,622.975830078125,621.5215454101562,621.1159057617188,621.6019287109375,620.9777221679688,622.0210571289062,621.967041015625,621.711181640625,621.8016357421875,621.718994140625,621.2935791015625,621.1119384765625,620.6876220703125,621.159423828125,621.1922607421875,623.3008422851562,623.841552734375,625.7386474609375,628.0869750976562,630.4775390625,634.0361938476562,636.88916015625,638.3173217773438,640.71337890625,642.6641845703125,643.4482421875,649.6377563476562,649.6681518554688,650.8195190429688,654.3914794921875,656.757080078125,693.16785,692.8851,691.73517,691.3777500000001,691.14197,690.7554300000002,690.5189,690.20856,689.5534,688.864,688.96686,688.2273,688.6195,687.5840500000002,687.3100999999999,687.9664,688.088,687.0700999999999,686.8008,687.7607,686.7060000000001,686.4707,685.86005,685.5463,685.08685,685.73444,685.7048,685.3130999999998,684.8347,684.7731999999999,684.90674,685.34424,684.80005,684.7825,685.24536,684.4739400000001,685.3025,684.1912,684.3633
744.6574,742.76215,742.09406,740.76764,739.6623999999999,738.596,653.747802734375,651.2576904296875,647.9622192382812,648.3521118164062,648.9725341796875,649.2738647460938,645.2439575195312,643.2054443359375,641.4157104492188,638.2952880859375,639.2387084960938,636.5126342773438,634.777099609375,632.02978515625,631.7706909179688,630.2686157226562,628.5140380859375,627.209716796875,627.39599609375,626.2247314453125,624.9368286132812,624.333740234375,625.1063842773438,624.1073608398438,624.9097900390625,623.3858032226562,623.311767578125,623.481689453125,623.8206787109375,622.152587890625,622.9005126953125,623.580322265625,621.906494140625,623.7706909179688,622.7803955078125,622.58642578125,622.7444458007812,622.754150390625,623.1887817382812,624.6748657226562,624.8071899414062,626.978759765625,628.9536743164062,631.7023315429688,633.0692749023438,636.4501342773438,638.4580688476562,642.3875732421875,645.2667846679688,651.030517578125,650.419921875,651.9707641601562,650.8880615234375,656.9056396484375,659.1292114257812,692.0493999999999,692.61914,691.749,691.11273,690.8693,691.07385,690.7903,689.5998,689.66626,689.4999,688.30334,688.44885,687.3371,687.8877,687.20154,688.0124,687.2283300000001,686.4102,686.5663,687.15326,686.34814,684.9184,685.3506500000001,685.3669,684.79443,685.0440000000001,685.0570700000001,685.38916,683.7951699999999,684.7709399999999,685.1233,685.2394000000002,684.7493,684.11554,684.01294,685.125,684.8566,684.59796,684.9933
744.1790000000001,743.3464000000001,741.0521,740.39905,739.15216,738.7937999999999,655.013427734375,651.1762084960938,649.2801513671875,648.308837890625,648.9644775390625,649.6651000976562,645.466552734375,643.0139770507812,641.1505126953125,639.2908325195312,636.7786865234375,636.2213745117188,634.8004760742188,633.2293701171875,631.8504028320312,629.78515625,629.0004272460938,627.1573486328125,626.9943237304688,626.047607421875,624.6571655273438,624.5057373046875,624.8265991210938,623.8821411132812,623.3810424804688,624.39501953125,625.1398315429688,623.455078125,623.1336059570312,622.6023559570312,623.1456298828125,622.79931640625,623.5520629882812,622.896240234375,622.7908935546875,623.2042846679688,622.412353515625,623.3330688476562,623.9745483398438,625.6130981445312,626.898681640625,628.597900390625,629.7559204101562,632.0701293945312,633.7373046875,635.7105102539062,638.588623046875,641.99462890625,648.1681518554688,649.1288452148438,649.8624877929688,652.549560546875,654.2342529296875,655.868408203125,660.5717163085938,692.2012,691.4609,691.5412000000001,691.0212,691.479,690.48254,689.59436,689.2626,689.0322000000001,688.6357399999999,688.0479,688.1786999999999,688.1576,687.32526,687.2482,686.9261,687.2256,686.1163,686.05005,686.0752,686.0735,685.20087,684.6878000000002,684.48224,684.5083999999999,684.681,684.8097,684.7604,684.1943000000001,684.047,684.131,683.9364,684.14484,683.54535,683.8814,684.3481399999998,684.40247,683.20184,683.0315
744.1684599999999,743.12085,740.8564,740.82666,739.4633,737.03235,656.343994140625,652.1909790039062,649.5205688476562,649.491943359375,650.8539428710938,650.5538330078125,646.4435424804688,642.4032592773438,641.267822265625,640.0851440429688,636.9783935546875,635.909912109375,634.9935302734375,633.5849609375,632.6573486328125,629.3416748046875,629.5045166015625,628.8828735351562,627.394287109375,626.6138916015625,627.5186157226562,625.581298828125,625.2033081054688,624.3959350585938,623.9638671875,623.555419921875,623.5064086914062,623.2776489257812,623.2349853515625,622.0171508789062,622.4324951171875,622.927490234375,622.9888305664062,622.1661987304688,622.0045166015625,622.7432250976562,622.3349609375,623.7481689453125,625.0966186523438,625.17724609375,626.3417358398438,626.6019897460938,631.7239990234375,632.1177368164062,633.619384765625,636.248046875,638.7398071289062,642.160888671875,648.5128173828125,651.6433715820312,652.3568115234375,652.70361328125,655.0250244140625,659.2531127929688,659.0714111328125,691.95105,691.4332,691.13965,690.6266500000002,690.93835,689.6717,689.89526,688.5804,687.9945699999998,688.9191,688.0111999999999,688.45056,687.57513,687.7117,687.29156,687.4914,686.5395,685.5312000000001,685.9459000000002,685.79364,685.95337,685.31244,684.2417,684.9938,684.44617,684.3971999999999,684.4300499999999,684.8123,684.7179,683.9466,683.1867,683.3484,683.85187,684.2118500000001,683.0746999999999,683.777,683.2246,683.9930400000001,683.6758399999999
743.84265,741.6788299999998,741.41644,740.4771,738.5667,737.02106,656.4815063476562,653.9970092773438,650.7600708007812,649.9246215820312,649.7589721679688,650.1318359375,645.8516845703125,642.1829833984375,640.6856079101562,639.7726440429688,638.119873046875,636.214599609375,635.0569458007812,634.4030151367188,632.7756958007812,632.1275634765625,631.04931640625,630.8657836914062,628.281005859375,628.5957641601562,628.07958984375,627.8624267578125,626.4425659179688,625.3986206054688,625.192138671875,624.9458618164062,624.6806640625,624.016357421875,623.4729614257812,623.7676391601562,623.197998046875,623.2356567382812,622.7128295898438,621.9720458984375,622.4219970703125,623.2972412109375,624.1344604492188,624.5613403320312,625.7543334960938,625.6114501953125,627.4025268554688,627.671630859375,630.8185424804688,633.0635986328125,635.1392211914062,637.1438598632812,640.2371826171875,643.8895263671875,648.6771850585938,650.4314575195312,652.7180786132812,653.1124267578125,656.9500122070312,659.4554443359375,692.1835999999998,691.6087,691.37134,690.90125,690.1768,690.5080599999999,689.9996,688.8072,689.2849,689.3899999999999,688.6003,688.2528,688.09186,687.98816,686.7143599999999,686.67975,686.8486,686.3619,686.40845,685.5099,685.3,685.4645400000002,684.3162,684.4651999999999,684.9644,684.1257,684.8232,684.03406,684.20233,684.7109,684.0812,683.3717,683.80035,684.2491,683.5305,683.87585,683.5742,683.5025,683.3385599999999,683.4252000000001
743.7613,742.8798,741.3919699999999,739.66315,739.0862400000001,737.16547,655.984619140625,653.525146484375,650.6234741210938,649.6338500976562,650.59033203125,648.0567016601562,645.1642456054688,643.3705444335938,640.6722412109375,639.3278198242188,637.2347412109375,635.6116943359375,635.0640869140625,633.9810791015625,631.931884765625,631.1150512695312,629.63525390625,629.5286254882812,628.62890625,628.0194702148438,627.8641967773438,628.0569458007812,626.9868774414062,628.2601928710938,627.4638671875,626.395751953125,625.7166137695312,626.4615478515625,626.1293334960938,626.0526123046875,625.3726806640625,625.3306274414062,624.8151245117188,624.9678344726562,624.5439453125,624.7144165039062,626.4791870117188,625.8629760742188,626.6622314453125,627.4029541015625,627.4615478515625,629.2678833007812,631.548828125,635.0511474609375,636.8251953125,640.045166015625,642.4519653320312,647.3928833007812,650.9721069335938,651.741943359375,652.8102416992188,655.3148193359375,656.9292602539062,661.0800170898438,692.8129,691.71,691.2532,690.2027599999999,690.5547,689.9179000000001,689.6478,688.8766,688.6972000000001,688.91626,688.5089,687.9667,686.3855,686.9072,686.0401,686.53864,686.8272,686.4383499999999,685.5889,685.63983,685.2160000000001,685.6365,685.1231,684.78357,684.2929000000001,683.3731,684.00885,684.2699,683.4739,683.19006,683.5953,683.5562,683.8919,684.3129,684.0515,683.1366,683.72485,682.84644,683.0409499999998,683.3787
743.59863,741.5213,741.16736,738.7573,738.2248,737.71436,657.4312744140625,653.8972778320312,650.704345703125,651.0717163085938,651.2732543945312,648.3025512695312,645.7484741210938,643.2242431640625,640.7672119140625,638.7817993164062,636.6466674804688,635.76025390625,635.5037231445312,633.28662109375,632.96923828125,631.2382202148438,629.7469482421875,629.9968872070312,629.6810913085938,628.6030883789062,628.4810180664062,627.7750854492188,628.267822265625,626.7824096679688,627.1622924804688,626.43603515625,626.8861083984375,626.1968383789062,625.8229370117188,625.900390625,626.2352905273438,624.8314819335938,624.9764404296875,625.5155639648438,625.4700927734375,625.3876342773438,624.7031860351562,627.876220703125,627.1939697265625,629.186767578125,627.3345947265625,632.4668579101562,633.0742797851562,635.9436645507812,637.4235229492188,640.2621459960938,644.289794921875,648.8678588867188,649.3823852539062,652.635498046875,653.8013916015625,655.1903076171875,661.0922241210938,663.1063842773438,691.7717,691.3709,690.9832,690.39716,690.3412000000001,690.1944000000001,689.3419,689.0745,687.34204,687.52814,687.93805,686.6137000000001,687.2207000000001,687.1139500000002,686.13916,685.4249,686.3088,685.0922,685.5184299999999,685.6675,684.8040000000001,684.67346,684.1657,684.8686499999999,684.0258,683.5919,683.8027999999999,683.3678599999998,683.5369000000001,682.7503,683.3873,682.7738,682.931,683.60986,683.5794699999999,683.784,683.12317,683.62866,682.7707499999999,682.0088499999999
742.2454,741.50574,740.1491999999998,739.42334,738.4144000000001,737.08185,735.5019,655.3463134765625,651.9359130859375,649.9932861328125,650.3157958984375,650.0054321289062,646.234375,644.807373046875,643.6923828125,639.4581298828125,638.78076171875,637.424560546875,634.5969848632812,635.7386474609375,633.3270263671875,632.9480590820312,632.4734497070312,631.1138916015625,630.974609375,630.4755249023438,629.5289916992188,628.993408203125,627.9740600585938,627.4066772460938,626.6262817382812,626.4255981445312,627.4002075195312,625.3433227539062,625.8162231445312,626.5618896484375,625.680908203125,624.6212158203125,625.7993774414062,626.10693359375,626.2960815429688,625.9680786132812,626.6347045898438,627.157470703125,625.8370361328125,627.2421264648438,630.88720703125,631.653076171875,633.7839965820312,635.6957397460938,636.9338989257812,639.6776123046875,643.0596923828125,648.8316650390625,648.6982421875,652.8870849609375,654.6866455078125,657.2604370117188,661.6952514648438,659.9285888671875,692.2655,691.63586,690.9352,690.28937,689.77765,689.9851,689.6938,689.09265,687.6441,688.19324,687.1173999999999,687.07184,686.2477,685.88416,686.218,686.1133,685.8952999999999,684.73846,684.7955,685.6674,685.7413299999998,684.60895,684.22876,683.2064,683.4169299999999,683.4913,683.61993,683.8808,683.5398599999999,682.43286,682.36993,682.7533600000002,683.1514,683.6553000000001,683.5532,682.8426,683.5643,682.95245,681.8884,682.65454
742.27783,741.69183,740.2851599999999,739.2321,737.8552,737.0563,736.3784,656.6064453125,652.4880981445312,649.0032958984375,650.5947875976562,650.0931396484375,646.6903076171875,644.7581787109375,642.544921875,642.1436767578125,639.9215087890625,638.9923706054688,637.08935546875,635.9115600585938,635.0303344726562,633.0632934570312,633.0794677734375,633.24658203125,633.078369140625,632.1823120117188,630.7239379882812,629.7440795898438,629.064208984375,628.6778564453125,628.1072998046875,628.114990234375,628.20751953125,626.9685668945312,625.5489501953125,625.9996337890625,625.8348999023438,625.0028686523438,625.9163818359375,625.3753662109375,625.8010864257812,626.3063354492188,627.3692016601562,627.7527465820312,628.7914428710938,630.105224609375,629.7792358398438,632.1383666992188,635.2107543945312,636.5693359375,637.9985961914062,640.5000610351562,643.1943969726562,649.2052612304688,649.9308471679688,653.6502685546875,653.8820190429688,657.3128051757812,659.99267578125,692.1788000000001,691.7931999999998,691.3329999999999,690.20807,689.5515,689.8449,688.8597,688.5553,687.4953,687.05853,687.7103999999999,687.296,686.46594,686.3171,685.78577,686.1054,685.95795,685.6511,684.78906,684.58057,684.5808,685.1458,684.67914,684.2253,683.6807999999999,683.52997,683.4625,683.186,683.3553,683.87195,682.8956,682.9303600000001,682.6896999999999,682.961,683.16113,682.4241,683.49646,682.9736,682.4619,683.44476,682.9518
742.9341,741.13715,740.2098,739.4903,738.12646,737.3722499999999,735.5631,658.4623413085938,654.8098754882812,653.4329833984375,655.6875,652.0328369140625,648.3502197265625,644.302001953125,642.5203857421875,639.891357421875,639.6187744140625,639.0432739257812,637.7142333984375,636.1766357421875,635.2025756835938,634.673828125,633.0962524414062,631.882568359375,632.666015625,631.8672485351562,631.1607055664062,631.531982421875,631.2444458007812,630.427734375,630.8300170898438,710.9187,630.0703125,629.2591552734375,627.7059936523438,627.648193359375,627.295654296875,627.1676635742188,627.3546752929688,626.8438720703125,626.8829345703125,628.4805908203125,628.1935424804688,627.651123046875,628.6512451171875,628.566650390625,630.684814453125,633.734619140625,636.2959594726562,638.4946899414062,639.157958984375,641.9188842773438,644.88037109375,651.7759399414062,653.7158813476562,655.3634643554688,657.1719360351562,657.3619384765625,661.4921875,692.3539,691.63324,691.80786,690.4168,690.2218,689.5919000000001,689.47253,688.85223,687.8298,687.7979,687.2434699999999,687.8529000000001,687.1862999999998,686.5917,685.87213,685.4836,685.0904,685.4907000000001,685.58765,683.7907,684.84595,684.6294,683.9695,683.9364,683.0796,682.26953,683.5682399999998,683.31616,682.4241,682.8501,682.87775,682.3396,682.7633000000001,682.6871,683.3241599999999,681.279,682.0915,682.71326,681.5855999999999,682.6485,682.7053
742.0123,740.5116,739.7107,738.44025,737.3483,736.3998000000001,735.9493399999999,658.9818725585938,658.40966796875,657.5220947265625,654.76025390625,652.37890625,649.4712524414062,645.4390258789062,643.39794921875,642.2259521484375,640.3707275390625,639.218017578125,639.138427734375,637.2353515625,636.0245361328125,634.74072265625,633.9140625,632.7434692382812,633.3634033203125,632.1652221679688,632.1586303710938,632.4346923828125,631.3809204101562,630.83203125,630.4505004882812,629.8720703125,628.957763671875,630.0087890625,629.771240234375,630.4048461914062,628.953857421875,629.8780517578125,630.6134033203125,629.3307495117188,628.92333984375,629.13720703125,629.4534301757812,629.8301391601562,630.0836791992188,630.869384765625,631.4197387695312,635.2671508789062,637.2432250976562,639.0374145507812,640.9063110351562,643.568115234375,648.0772705078125,650.673095703125,654.0093383789062,654.8425903320312,657.98974609375,661.256591796875,661.5048217773438,692.0709,691.4243,690.80554,689.99207,689.9075,688.8034,689.2399,687.8211699999999,688.1038,687.6736,687.4185,686.33636,686.8638,686.1069,685.82635,685.39813,684.7067,685.0077999999999,684.4049,684.55566,684.3476599999999,684.26556,683.8732,684.2003,683.16156,682.77765,682.37354,683.34705,683.2535,682.1874,682.65674,681.56384,682.428,682.58167,682.35547,683.3287,682.86316,681.9061999999999,682.24335,681.3807399999998,681.96173
742.2209,740.1232,739.5109,738.0706,737.7995,736.6136,735.1894,734.1613,657.634521484375,655.750244140625,654.5790405273438,651.7721557617188,649.2623291015625,646.7533569335938,643.7980346679688,642.9635620117188,640.8027954101562,640.605224609375,639.5760498046875,639.6278076171875,637.81201171875,634.9324340820312,634.2100830078125,634.0609741210938,634.0322875976562,632.0034790039062,632.1243286132812,632.7850341796875,632.3046875,631.4036254882812,631.5504760742188,630.7151489257812,630.5921630859375,629.2091064453125,628.0065307617188,630.302978515625,631.6614990234375,629.0127563476562,630.542236328125,628.1326904296875,629.453125,630.0465087890625,628.6923828125,628.9979858398438,630.9178466796875,633.831787109375,634.7728881835938,636.3798828125,637.474609375,640.0050659179688,641.4762573242188,645.0237426757812,649.4767456054688,651.5053100585938,653.89501953125,655.7576904296875,658.0558471679688,660.8584594726562,691.8348000000001,691.8159,691.4375,690.1863000000001,690.02124,688.91156,689.8045,689.1276,687.5535,688.2654,687.12463,686.9374400000002,687.0618,686.6012,685.3198,685.53235,685.44214,684.5921599999999,684.5155,684.8933,683.3153,684.0045,684.6687,684.2368,683.37463,683.4634,682.4888999999998,682.20197,682.5807,682.40955,682.10144,682.1407999999999,682.8478,682.1947,682.5266999999999,682.5796,682.8207399999999,681.9919400000001,680.99677,682.05426,681.1665,682.0657
741.39374,740.40564,739.7954,738.5318,737.6058,736.5632,735.3650500000001,734.2116999999998,655.6826171875,656.1360473632812,652.740478515625,651.0198364257812,649.5701293945312,647.898193359375,644.6775512695312,642.8079833984375,640.52978515625,639.9004516601562,639.9323120117188,638.5556640625,639.7791748046875,637.6231689453125,635.9703979492188,635.5650634765625,633.7942504882812,633.9598388671875,633.80517578125,633.930908203125,632.96337890625,632.0288696289062,631.39697265625,631.3977661132812,631.3304443359375,631.0453491210938,630.4838256835938,630.5576782226562,630.5575561523438,631.6028442382812,630.7064208984375,629.1901245117188,630.5606689453125,630.0076293945312,630.0733642578125,630.8379516601562,631.9019775390625,633.169189453125,634.00927734375,636.909423828125,638.1522216796875,641.5494384765625,642.8270874023438,648.585205078125,650.1727905273438,653.2302856445312,656.640625,660.0910034179688,656.517578125,660.1840209960938,692.11365,691.63727,691.25494,690.67554,689.264,689.19244,689.50775,689.22125,687.9585,687.7543000000001,687.244,686.0953,686.4318000000001,685.8284000000001,686.0454,685.1250600000001,685.2404,684.35706,684.73206,684.22217,683.7657,683.2846,683.8921,683.62445,682.9119000000001,683.0883,682.7672,682.88635,683.07184,682.6907,682.2009,682.17346,682.2299,682.3557,682.10474,681.9692,682.13806,682.5023999999999,681.8798000000002,682.1311000000001,682.6232,682.1362
742.2157,741.34717,739.3366000000001,738.5172,736.7443000000001,736.21674,735.0307599999999,734.3191,656.8673095703125,656.6302490234375,653.4383544921875,650.5869140625,650.7144775390625,647.4863891601562,646.8309326171875,644.3997192382812,642.326171875,640.161865234375,639.88525390625,638.6561279296875,637.578857421875,637.5365600585938,636.3223266601562,635.97705078125,636.7753295898438,635.022705078125,634.1542358398438,633.8280639648438,632.732421875,634.1121826171875,633.4905395507812,632.4393310546875,632.4037475585938,632.46826171875,630.8876953125,631.1569213867188,631.6498413085938,631.4781494140625,631.0096435546875,630.9727172851562,631.2620239257812,631.066162109375,632.2869873046875,632.9161987304688,634.4049682617188,636.5488891601562,636.4200439453125,637.9302368164062,642.8660888671875,646.7484741210938,645.0722045898438,649.6163330078125,650.2245483398438,656.7429809570312,656.2442016601562,656.7627563476562,658.064208984375,659.7429809570312,691.93335,691.43866,691.2953,690.0019499999999,689.0761,688.9184,688.75903,688.3636,687.96967,687.10504,686.49023,685.9073,686.15704,685.58026,685.685,685.5097,684.9958000000001,684.43274,684.7724600000001,684.9687,683.8826,682.9686000000002,683.20044,684.39667,683.13306,682.4818,682.8105,682.5724,682.86066,681.87585,681.8691,681.75574,682.4995,681.66614,682.46,682.1741299999999,681.77454,682.3596,681.7936,681.935,682.5651,681.9337
742.4901,741.0468000000001,739.7704999999999,737.7881,737.1234,735.5033000000001,734.4572,734.0627,656.9835205078125,657.33984375,653.5824584960938,650.6400756835938,648.3351440429688,646.232666015625,645.5753784179688,645.2703857421875,643.060791015625,641.4520874023438,640.0319213867188,639.4078369140625,636.969970703125,636.928955078125,637.5411376953125,636.6401977539062,637.1741333007812,636.3389282226562,634.2725830078125,635.6022338867188,636.2394409179688,636.2501220703125,635.177734375,634.7904052734375,634.36669921875,633.4727783203125,632.3477172851562,632.1351318359375,632.8417358398438,631.5076904296875,632.5713500976562,633.201171875,633.2254028320312,632.779541015625,634.4080200195312,634.3988647460938,635.6001586914062,635.9229736328125,636.0813598632812,639.28173828125,643.9346923828125,645.0675659179688,645.8064575195312,649.822265625,652.0150146484375,655.125,655.4060668945312,657.3942260742188,659.0421752929688,692.6455699999999,692.07043,691.55853,691.2260000000001,690.49225,689.5851400000001,689.343,688.96783,688.3979999999999,686.87683,687.3726,686.5382,686.3122599999999,686.8029,685.4556,685.3699,684.683,684.88293,684.9028,684.5547,683.7577,684.15295,683.51697,682.5682,683.9131,682.9086,682.3467,681.9055000000001,682.5820999999999,682.2672,681.87146,681.62445,680.4129,681.44147,655.65295,655.1096,654.8704,655.64795,652.97284,656.1449600000001,655.26434,653.77,655.64386
741.6964,740.586,739.53656,737.6845000000001,737.62494,735.5129999999999,734.4545,733.5855000000001,732.61743,655.2371826171875,653.43603515625,650.4443359375,647.95849609375,645.9290771484375,645.1935424804688,644.1924438476562,642.9951171875,642.0620727539062,640.4795532226562,639.9073486328125,639.461181640625,638.5590209960938,638.7732543945312,637.6602783203125,637.563720703125,636.9130249023438,636.5971069335938,636.8967895507812,637.9382934570312,636.6119384765625,636.854248046875,634.59814453125,634.6827392578125,633.3214721679688,632.7802124023438,632.833251953125,633.9592895507812,633.7732543945312,633.75244140625,634.3114624023438,633.49658203125,632.8917846679688,635.0222778320312,635.8972778320312,636.9207763671875,637.5403442382812,640.40283203125,641.0230102539062,643.2813720703125,645.8108520507812,648.7077026367188,648.89453125,653.3067626953125,656.8446655273438,656.8080444335938,657.1216430664062,659.7996215820312,692.66815,691.8617,691.3923,690.539,690.4076,689.2538,688.8271499999998,688.3151,688.12384,687.9327,687.4154,687.0998,685.99835,686.45135,685.87,686.0941,685.09766,684.94073,684.6829,684.4744000000001,683.84186,683.9414,683.2048,684.06836,682.6385500000001,682.20264,682.2638,681.8712,681.815,682.461,681.6283599999999,682.1032,681.3503000000001,681.86487,655.4670999999998,657.4554,641.64453125,641.4193115234375,640.60205078125,640.6710815429688,639.8580322265625,640.1591796875,640.27587890625
742.3608,741.51306,738.16754,737.8423,737.5825,735.67163,734.63806,733.5970499999999,732.4876,656.4574584960938,653.813720703125,651.865478515625,650.225341796875,646.79833984375,644.2998046875,644.389892578125,643.0633544921875,642.0023193359375,640.9239501953125,640.0941772460938,639.394775390625,639.2080078125,638.967529296875,639.8947143554688,640.5244140625,640.2252197265625,637.7459716796875,636.8050537109375,636.44970703125,635.4033203125,634.7866821289062,634.1658935546875,632.0914916992188,632.8814697265625,632.8713989257812,633.8517456054688,634.58740234375,634.8169555664062,633.9661254882812,634.0449829101562,634.4639892578125,634.8560791015625,637.3799438476562,638.2704467773438,637.9927978515625,639.424072265625,641.7938842773438,642.9169921875,645.6212158203125,646.9505615234375,647.206787109375,650.9109497070312,653.5308837890625,652.7666625976562,655.086669921875,658.8217163085938,692.44916,692.48773,692.0493,691.4457400000001,690.4547,689.6142,688.80994,688.20807,688.5005,687.58606,686.92914,687.74603,686.8295,686.6378,686.5551,685.71405,684.69965,685.35284,685.0645,684.15704,684.61633,683.9961,683.4323,683.53186,683.4123,683.0498,682.7375,682.8644399999998,682.2065,682.4202,682.6283,681.3968,681.6837,680.8324,681.8075999999999,654.8561,644.0738525390625,641.2643432617188,640.7994995117188,639.9901123046875,639.9298706054688,639.0966186523438,641.0794677734375,639.1781616210938
740.61285,739.49695,738.9964,737.7815,736.7256,735.8831,734.9477,733.499,732.7853,652.486328125,654.775390625,653.6517333984375,649.9981689453125,648.6221923828125,647.4378662109375,645.2568359375,643.907470703125,643.3406982421875,642.4595336914062,641.6405029296875,640.3494873046875,639.7127075195312,639.8087158203125,639.0270385742188,639.5523071289062,638.6768798828125,638.35498046875,635.7044067382812,635.7803955078125,635.58154296875,634.056640625,633.1535034179688,633.3204345703125,632.6060180664062,633.2236328125,634.4370727539062,634.2852783203125,634.4249267578125,634.4406127929688,636.0708618164062,636.8199462890625,637.7412719726562,636.41943359375,638.9327392578125,640.0390625,640.982421875,642.847412109375,643.8483276367188,648.8383178710938,644.2227783203125,648.8294067382812,653.044189453125,654.6648559570312,654.0402221679688,654.4547729492188,657.4515380859375,692.6941,692.4185,691.6445,690.74927,690.3117,689.32806,688.7966,688.90045,688.80133,688.03955,687.5739,686.8563,686.2155,686.47424,686.5589,685.13513,684.7119,684.3147,684.7104,684.24536,683.6106,683.21124,683.91724,682.2117000000001,683.0932,682.3003,682.58154,681.81757,681.4193,681.9378,681.6361,681.8055000000002,680.9342000000001,680.5332,681.54565,654.33746,639.2723388671875,640.9290771484375,640.6966552734375,639.7909545898438,640.0424194335938,639.9553833007812,640.5497436523438,640.9268798828125
741.70966,738.77,738.6229000000001,738.3534499999998,736.6975,735.57495,734.84894,733.2987,731.9665499999999,656.906494140625,656.267578125,652.4332275390625,648.7902221679688,645.7898559570312,646.2538452148438,645.3659057617188,644.3731689453125,644.9334106445312,644.0088500976562,642.2617797851562,642.038330078125,640.89111328125,640.256103515625,640.5179443359375,639.929931640625,639.5740966796875,639.1880493164062,636.5216674804688,635.9692993164062,635.7035522460938,634.8191528320312,634.0153198242188,633.021728515625,634.0899658203125,633.29150390625,633.4547119140625,634.7515869140625,634.1431884765625,635.839599609375,636.3670654296875,637.1043701171875,638.409423828125,637.9188232421875,638.9077758789062,641.1525268554688,642.7409057617188,643.470458984375,643.228271484375,645.1276245117188,644.4342651367188,647.0557250976562,650.5798950195312,651.1046142578125,653.9097900390625,656.0218505859375,656.0938720703125,692.3899,692.5516400000001,691.93243,691.25433,690.54504,689.5628,688.71216,688.48956,688.21136,687.4114,687.2146,686.1373000000001,686.48706,685.69885,685.99066,686.08453,685.1748,684.2012,683.62805,683.4790599999999,683.7554,683.6307,683.7237500000001,682.65094,682.97284,682.52466,681.9739400000001,682.2339,682.1397,681.379,681.61316,681.64404,680.85846,680.70386,681.7908,641.1316528320312,641.02392578125,640.4869995117188,640.27294921875,640.900634765625,640.096435546875,639.8353881835938,640.833740234375,639.9931640625
740.83167,739.3718,738.4966,737.7317,736.8068,735.52277,734.51404,733.3905,732.9508699999999,657.7301635742188,654.5064086914062,650.9243774414062,648.68310546875,645.3062133789062,646.329833984375,646.3640747070312,647.8486938476562,645.8080444335938,644.75146484375,643.442626953125,643.147705078125,642.2344970703125,642.1407470703125,640.8903198242188,640.5753784179688,639.7260131835938,637.13037109375,637.7653198242188,636.1503295898438,636.4931030273438,634.6480102539062,635.151611328125,634.426025390625,634.9083251953125,633.1664428710938,633.9308471679688,633.5941772460938,633.4264526367188,637.2915649414062,637.3250122070312,640.8113403320312,640.7003784179688,639.9293823242188,640.0792236328125,641.6830444335938,642.3358154296875,645.4520874023438,645.3765869140625,648.5023193359375,647.596435546875,647.9711303710938,649.2113647460938,651.444580078125,654.2694702148438,656.1510620117188,657.8340454101562,692.43744,692.0419300000001,691.78235,691.0557,690.53406,689.85394,688.4943,688.37,687.7606000000001,687.5867,687.25073,686.4031,686.3661,685.50256,685.6241,685.8993,684.7078999999999,684.1606,684.27057,683.73474,684.0927,684.0576999999998,683.25964,683.0465000000002,682.4152000000001,682.5676999999998,682.4366,681.70135,681.8079,681.3207,681.4459,681.6794400000001,680.99475,680.30664,681.5906,641.8893432617188,641.2177734375,641.6259765625,640.3094482421875,640.5023803710938,640.6248779296875,640.5726928710938,640.303955078125,640.9623413085938
740.4017999999999,740.1586,738.7853,738.00323,736.626,735.5981399999998,734.2888,733.35913,731.9373,657.7393188476562,654.6290283203125,651.7124633789062,650.6657104492188,651.0196533203125,647.6998291015625,646.4194946289062,644.6170654296875,644.0167236328125,642.5687255859375,641.5509643554688,642.8424682617188,642.5507202148438,642.6721801757812,641.3942260742188,640.4893798828125,641.1787109375,638.9799194335938,635.9601440429688,637.5935668945312,635.259033203125,635.1636352539062,635.228271484375,635.1163330078125,635.0950927734375,634.6327514648438,633.6821899414062,635.5010375976562,635.6537475585938,636.4549560546875,639.1011962890625,640.7090454101562,639.8881225585938,639.01953125,639.9037475585938,641.3978881835938,643.2861938476562,644.4779663085938,645.8167724609375,648.0947875976562,649.4876098632812,648.5811767578125,649.2947387695312,653.760498046875,657.7515258789062,657.7398681640625,693.1808,692.7519,691.9129,691.6432,690.5151,690.0753,689.25214,688.9563,687.1289,687.99493,687.8693,687.14825,685.8381299999999,686.6758400000001,685.40955,685.9694,685.2961400000002,684.5946000000001,684.41895,683.6049,683.3172,683.8412,683.19116,682.6333,682.8351399999999,682.44165,682.0932,682.45026,681.3934,682.3564,681.2292,681.44244,681.1404400000001,681.7991,681.3538,681.13947,641.6675415039062,641.3160400390625,640.3370361328125,640.820556640625,639.9754638671875,639.7088623046875,640.1763916015625,640.4874877929688,640.8973388671875
740.0778,739.6758,738.7805000000001,736.9319,736.3667599999999,735.0621,734.3977,732.7817,731.8309999999999,730.0395000000001,657.6944580078125,653.7208251953125,651.1572265625,649.7802734375,648.8338623046875,644.4993896484375,641.557373046875,642.4724731445312,641.1871337890625,642.0479736328125,642.1199340820312,641.0399169921875,640.7308959960938,640.3723754882812,640.365966796875,641.1555786132812,638.9075927734375,638.3482666015625,639.1763305664062,637.3787231445312,636.6535034179688,635.3042602539062,636.4600830078125,635.9594116210938,634.8070068359375,636.2210693359375,635.33984375,633.7620849609375,635.3533325195312,640.5463256835938,637.8695068359375,634.0585327148438,639.2931518554688,639.782958984375,640.6821899414062,641.4342651367188,644.1318969726562,647.262451171875,645.7044067382812,650.2171020507812,651.2440795898438,650.6091918945312,654.7214965820312,655.7374267578125,660.6879272460938,692.7621999999999,692.1794,692.0552399999999,691.37946,690.8559,689.74115,689.067,688.72107,688.05365,688.23254,688.6469999999999,686.4173,686.7083,685.8415,685.172,685.6440399999999,684.8217999999999,684.0489,683.8904,684.37897,683.8379499999999,684.41376,683.67303,682.6692,683.01086,682.9006300000001,682.69147,682.2799,681.6693,681.2586999999999,681.6861,681.48584,681.20715,681.6321,680.7506,681.4518,642.0678100585938,640.1631469726562,639.6130981445312,639.5831298828125,640.8192138671875,639.5940551757812,639.8133544921875,640.3370971679688,640.4600830078125
740.7543,739.65594,739.466,736.6218000000001,736.2289,734.7378000000001,734.1082,733.0368699999999,732.6013,730.60516,655.2861938476562,653.9564819335938,650.6858520507812,647.6118774414062,649.6934814453125,644.7373657226562,642.3235473632812,641.7426147460938,641.0844116210938,637.753173828125,636.52783203125,639.0985107421875,640.4788818359375,640.2133178710938,639.9039916992188,638.2588500976562,639.2696533203125,638.504150390625,638.830810546875,636.4312133789062,636.5048828125,635.7482299804688,637.9201049804688,636.55615234375,634.9490966796875,633.9601440429688,634.9612426757812,634.69287109375,634.354248046875,638.0234375,636.1376342773438,633.9217529296875,635.8372802734375,637.6495971679688,639.685546875,639.6456909179688,642.485107421875,644.3750610351562,644.461669921875,648.5543212890625,648.6417236328125,652.0242919921875,655.6428833007812,656.8660888671875,693.659,693.5291,692.9614000000001,692.11774,691.6683,690.7033,689.85187,689.09485,687.8307,688.8623,688.44073,687.49725,686.932,686.4641,685.95905,685.8513,686.35785,685.05176,684.50494,684.5180700000001,683.4478,683.0336,684.0799,684.42163,683.4574,682.60645,682.4021600000001,682.3522,682.05383,681.9866,681.4799,681.3491,681.3725999999999,681.0837000000001,680.00366,680.2781,681.5873999999999,641.9118041992188,641.2576293945312,640.5123291015625,640.4075317382812,639.958251953125,639.5499267578125,641.1429443359375,640.4093627929688,640.8692626953125
